# 3D point list with one line of data per point:
#   POINT3D_ID, X, Y, Z, R, G, B, ERROR, TRACK[] as (IMAGE_ID, POINT2D_IDX)
# Number of points: 398, mean track length: 4.6917259786476873
2239 2.1396231271826154 2.3875205668448309 6.0642249796714927 130 158 192 0.81092185584703014 3 2179 8 2154 12 2171
2240 2.9971661575385107 5.0081056909020543 5.354871861311632 98 70 24 1.6254061243837841 3 2264 8 2211 4 1866
2241 -0.031994180541903186 4.4385431427000608 6.1176333358002477 41 28 15 0.7976806792279395 3 2271 8 2229 4 1944
2242 0.80235438670707493 6.4117078877320219 3.9997771525645121 174 182 199 2.148190433102021 3 2230 8 2236 4 1925
2244 1.100408860304384 2.3748105699295752 6.5404387320460726 136 168 202 0.65306341273679602 16 1935 8 2264
2245 -0.43782393969261574 8.2854514916384439 2.1830825869760146 8 16 17 0.82930693914884346 3 2314 8 2281 4 1957
2246 0.90903875701360848 3.9928740604854407 5.6602517329313207 8 11 11 1.3126908429222865 3 2340 4 1970
2247 -1.6750266654160155 3.3328394053887371 5.2109450174505296 131 78 133 1.1064899269053341 23 344 3 901 8 801 21 162 22 810 4 1161 12 1332
2248 -3.0775498527398937 4.7401665298285796 4.2246221708649356 197 186 184 1.1077628763821623 9 2027 3 1911 8 1844 13 2298 2 1922 14 1451 7 1799 15 2323 17 2253 20 1474 19 2042 4 1812 16 1341
2249 -1.7119315526917909 7.7944798390853194 2.7914225753624526 180 200 254 0.97189895998277365 23 2176 3 2164 8 2201 1 2120 16 1884 21 2022 9 2464 4 1877 4 1905
2250 2.5964388427434884 6.9707016978294138 3.3487594754132486 176 171 141 0.99868959624362774 23 1910 3 1855 8 1927 6 1535 19 2330 16 1693 21 1891 22 2140 9 2227 4 1708
2251 -0.42982709961532317 8.2578914727792299 2.1928208306343624 15 19 18 2.0233126914772637 6 1812 23 2319 3 2313 8 2280 5 1989 16 1985 21 2171 9 2595 4 1958
2252 -0.65870652417106712 3.4179340729648531 6.1851931095656854 99 83 91 1.5049273207954987 22 386 8 195 4 1133
2253 4.1832762908491219 5.7185989927293708 4.5730356351421806 150 150 151 1.4171398989132378 17 877 4 27
2254 -0.98105395509998605 6.4487487235159922 4.1118043896997918 48 28 32 0.28932757916747381 3 259 4 335 12 726
2255 -0.63245233965024983 9.8499151798944968 -0.148071575003307 4 13 16 0.46500853538633713 8 1250 4 581 12 7
2256 -0.61451928067867234 6.5411572791236585 4.0978423217817097 101 63 30 0.53630849030168515 8 428 22 98 4 666
2257 0.084832054320906264 4.0001810507445734 5.4707453863140545 28 37 72 0.29348763935245054 8 364 4 895 12 838
2258 -1.5631190778659376 3.3558687213671399 5.1384852327846984 149 107 162 0.45169476001613168 3 879 4 952 12 1094
2259 -1.6205979393371774 3.3296568221055778 5.2377447759937343 166 131 183 0.23793675877946133 3 512 8 156 4 972
2260 -2.3615515291461273 8.5659608443350486 1.8706529131805305 175 183 176 0.50730886463838465 9 1233 4 1065
2261 1.2942384353970486 2.2243376349292086 6.5642932435367287 55 56 92 0.25363526774111206 5 802 21 542 4 1074
2262 0.31615800149420153 2.9029810047572928 6.3868348523296117 85 99 130 0.52027549396654549 8 1373 4 1100
2263 -1.4484919153978963 3.3823561778160367 5.2497192882741475 146 125 165 0.72263855461214843 8 825 4 1134 12 1327
2264 -1.7176722831868982 3.3057560070510288 5.2580494013745627 155 100 159 0.62088950092560546 8 782 23 804 4 1169
2265 -1.7176722831868982 3.3057560070510288 5.2580494013745627 155 100 159 0.62088950092560546 8 781 23 803 4 1170
2266 0.51230106630650929 9.2010841541939357 1.0793057214464943 188 157 102 0.32389189239058513 8 1607 4 1218
2267 0.72359865459197226 4.1490198123023259 4.5389362358676184 143 169 185 0.7306329127904776 3 1316 4 1229 12 1449 11 1330
2268 0.27670083452856409 4.1114955056527824 5.6722978559075337 22 16 20 0.96706800973275653 8 1565 4 1244 12 1913
2269 -1.4761541375341456 3.4297844841888874 5.0773755193273171 96 55 85 0.87271614670104658 3 1347 4 1278 12 1663
2270 -2.0533362031618054 3.4169237824880572 4.9878754663811202 180 140 194 0.40135478179439121 3 1180 8 1089 4 1317
2271 -2.3315994599298104 3.6893967174077571 4.807135063851768 173 116 180 0.20017364600184431 3 1168 8 1304 4 1320
2272 -0.54868330756812467 9.8359883254621288 -0.21661664553900717 21 41 26 0.23396646931246673 8 1721 4 1338
2273 1.5323859725911113 2.8659039435434099 6.2567389244071974 15 20 35 0.049215888211826368 3 386 4 1356
2274 -1.3114195610205961 3.6297540867445237 5.2567619775965948 94 59 100 0.89493217052006935 3 1348 4 1400 12 1511
2275 -2.0726023016738631 3.6573669889805265 4.6358654152675678 174 125 182 0.48114102259899311 3 1509 8 1335 4 1416
2276 -1.9462722231516443 3.3409064016039007 5.0858579016685264 162 91 155 0.61700885894193469 3 1185 8 1500 4 1443
2277 2.079399480067611 2.5804909577348996 5.9769025969705689 124 58 34 0.31129482233596512 8 1699 4 1482 12 1917 3 1620
2278 -2.3314944794959449 5.5310028350096774 3.8760392281976719 175 198 243 0.9036063889944449 3 1486 4 1516 12 1789
2279 3.3762709172703538 6.657183761766019 3.5521718440512533 197 165 100 0.73048199241029999 3 1848 8 1948 4 1571
2280 2.353887594558878 7.3409066562923098 2.906726705312241 189 183 168 0.42200515604958921 8 1932 4 1582
2281 0.7659606343660893 8.6587637826294319 1.6843604612578624 181 182 171 1.188810971965947 8 1918 4 1599 12 1738
2282 1.0762058250416007 3.6182755977355687 4.3692865408984716 144 171 191 0.38036052640374535 3 1874 8 1810 4 1612
2283 0.64907993099628603 3.8582317384329601 5.364995709989155 6 11 18 0.25075086150137504 3 1621 8 1787 4 1640
2284 -1.8483342064003687 3.3022925095927316 5.0959662178325438 164 122 177 0.64392201128694249 3 1670 8 1642 4 1687
2285 3.0281435372482099 6.6988288049835791 3.5820811859390185 196 163 96 0.59348874830412057 3 1969 8 1937 4 1699
2286 -0.72746040392258482 7.2263612655544911 3.1869379835128742 16 21 28 1.1131724597304891 3 2002 4 1796 12 1961
2287 -0.72746040392258482 7.2263612655544911 3.1869379835128742 16 21 28 1.1131724597304891 3 2001 4 1797 12 1960
2288 -3.0231577850054401 4.5849575198635151 4.3225530816327185 124 73 56 2.0671562406728925 8 2077 16 1556 4 1813
2289 0.97070319103588643 3.6745491778592423 4.3011682616014362 160 176 189 0.91876087467578493 3 2089 4 1824 12 2090
1180 2.5972994731570709 6.9705518295778104 3.3485036455666077 172 171 143 1.010127310750792 6 1536 19 2331 16 1694 21 1892 22 2141 9 2228 8 1928 4 1707 3 1856
2290 0.87523590504790461 3.8241895105341901 4.4393412555849361 67 103 127 0.36929452381499733 3 2168 8 2115 4 1826
1181 1.0522784312557119 2.2506319600529623 6.78647628230644 165 188 225 1.3360270051071625 17 2282 19 2350 16 1860 18 2237
2291 0.45223203760894815 6.9679486454410684 3.4069205405292498 15 20 29 0.36060732272624929 20 2133 4 1828
1182 0.78630776557358006 3.8953068251811245 5.2517130699212276 95 120 143 1.4412184793776923 19 2374 16 1791 7 2071 18 2259 4 1835
2292 -1.8691485995106087 6.6497165939371614 3.8715507925261603 18 24 35 1.7404451651340433 8 2148 4 1843 12 2022
1183 0.40495164227375452 4.9814601257501074 4.4621801149576177 154 170 178 0.74677293186584848 7 2219 20 1818
2293 -0.55733149167221763 6.9909700838265936 3.4379211867799579 15 20 29 1.9230746447587317 3 2288 8 2250 4 1938 12 2178
1184 4.9004238489499174 2.9414323063194296 7.5400966468643178 163 166 143 0.32647292813501388 6 1705 13 2620 19 2428
2294 -0.17760626705752355 4.7317339825951192 4.4201871236917532 73 89 126 0.30605176143789947 8 2266 4 1950
2295 1.1304063694900019 3.0912715344135462 5.8858652699517302 116 134 161 1.2401993956144808 8 2265 4 1951
1186 -2.8459983044484569 4.7430208214445928 4.2317889790365051 18 18 20 1.1465627231350004 17 2440 19 2461 20 2027 1 2001 5 1840 16 1837 21 1922 9 2408 23 2120 3 2121 8 2177
2297 0.088227675484692403 8.7277681579045794 1.5223072631013115 149 38 71 0.84935887191845083 1 1199 5 1254 16 1058 21 1205 4 850 6 984 16 917 21 802 9 865
1188 0.72809563141013811 5.9970636494160923 4.0607618122862705 182 191 203 2.0659137634149296 7 2225 19 2464 20 2066 1 2041 5 1875
2298 0.51392639190264133 6.9460566834506574 3.4304701685366119 23 26 26 1.4322698494687636 20 1993 8 2023 3 1994 4 1730 16 1796 22 2105 9 2200
1189 -5.1581131477196935 3.6193497688655984 8.9815657762992771 129 135 146 1.5059452223423573 17 2431 19 2486 18 2446
2330 -1.4747569799338391 3.4281409755705834 5.1200836234302649 154 128 176 0.32161147203150914 23 1520 12 1820 10 1385
1221 1.3073322684878055 3.593790918049601 5.2883387162400179 9 14 26 0.69306840767855049 19 860 20 884 1 851 5 1144
1791 1.2113412458684802 2.2140230266943584 6.6113108797165534 39 54 91 0.72203527633962561 16 713 22 1283 3 1371 4 1248 8 1390
2332 -1.6384136859240881 3.0475817842946218 5.4667691728748515 157 97 153 0.61089661339785051 3 1551 23 1343 12 1833
1223 1.0216072486369852 6.6737382911125476 3.7492283403576301 179 151 139 0.36100691435312227 6 449 20 927 1 573
1792 -2.2844166601715625 3.897638041460151 4.5381319989452482 174 131 193 0.29846083678382751 21 937 22 1336 23 1021
2333 -1.0685625811172454 10.157253577980994 0.066827443581370105 13 22 15 1.3713266832117299 4 1605 12 1843 11 1889
1793 -1.9661502000708926 3.6378540529473784 4.6752265519700558 176 130 193 0.48571423141748354 21 1138 22 1349 23 1273 12 1646
2334 0.20375670436088406 4.1022080245612944 5.3961736348562939 41 47 60 0.65868124983097376 23 1827 12 1909 11 1964
1225 0.60698132422010176 7.7555380240807184 2.530894562548422 140 163 201 0.34762494713681513 6 722 20 945 5 811 16 448 3 67 8 593
1794 -1.8000776328598396 3.6644398172416475 4.7278749339314929 137 114 154 0.91352902118798696 21 1146 22 1352 9 1320
2335 0.099581028564021595 3.9844448255539868 5.6917991448444143 59 63 86 0.58066023968040503 23 1688 12 1919 11 1970
1226 0.60698132422010176 7.7555380240807184 2.530894562548422 140 163 201 0.34762494713681513 6 721 20 946 5 812 16 447 3 68 8 592
1795 -1.6107684372598796 3.4130511491465838 5.0118705938139207 167 137 185 0.44015669056732265 21 960 22 1370 9 1011
2336 -1.2884747656941293 3.6080229674274085 5.5604643224897732 105 70 104 0.55182697477100195 23 1685 12 1929 11 1845
1227 0.07555432489978145 8.7613006922436352 1.4816234996902091 195 192 220 0.57346599732854786 6 852 20 951 1 850 5 768 16 417 21 345 8 618 6 1094 4 88
1796 -1.7598982006106789 3.344206782766673 5.1148128063409128 170 128 185 0.57203621082959866 21 684 22 1371 9 1575 23 1311 3 1522 11 1553
2337 0.3584128552942526 4.0582724096261877 5.4761003432321189 97 109 125 0.33098434567831186 3 1773 23 1831 12 1979
1228 -1.1685930381734297 2.9176760047738082 6.4763118228363492 106 47 96 0.64449629763267569 19 1170 20 1007 5 663
1797 -1.4658762513813102 3.4400287803061174 5.0760469551605416 117 73 115 0.79776145212932992 21 966 22 1376 9 1582
2338 -0.61930688549827562 7.5227862878842684 2.9053396481887779 202 223 254 0.54551316808382955 23 2178 12 2081 11 2084
1229 -0.43430062978544115 2.7501586343993076 5.9302785809661716 119 140 168 0.47768347237043085 2 938 20 1029 21 1199 22 1209 21 793 9 1426
1798 -1.7142812701455608 3.2993749228573752 5.2112013636881107 171 123 182 0.87240045747698236 21 687 22 1377 9 1584 23 1528 8 1506
2339 0.46161603653865757 6.9481141934857211 3.3979851050021623 19 24 29 1.8906286604915041 4 1827 12 2086 20 2132 16 1795
1230 0.49000740241826979 3.4024580331981626 6.5425919745382286 90 30 40 0.8570036303077887 6 828 20 1077 1 459 5 969
1799 -2.9137281844865397 2.9884207390481956 5.9002800791180183 119 179 225 0.71027870544685656 21 924 22 1378 9 1589
2340 -0.0058016579444550298 3.9020308736134308 5.0703478210272204 48 57 78 1.5477298166438349 23 2247 12 2162 11 2204
1231 1.9156602630987734 2.2320631151159955 6.1297618396534332 141 104 65 0.29645639085465386 7 1302 20 1090 5 1276
1800 -1.4311036939161617 3.034624425995291 5.5760442096848486 148 144 190 0.71870531734462217 21 975 22 1396 9 1374 23 1552 12 1835 11 1726
2341 0.4798500962748794 8.1406222457698778 2.1515209373191713 150 173 219 0.39713264967940198 9 182 10 299
1232 1.2737373949381507 3.921539033963763 4.1304847730384404 144 171 193 0.20776960921499824 2 1353 19 920 20 1114 5 1142 16 936
1801 1.1811137086055425 3.6657898610484199 4.3240574615388514 105 160 191 0.47200387552266004 21 1061 22 1405 9 1381
2342 0.4798500962748794 8.1406222457698778 2.1515209373191713 150 173 219 0.39713264967940198 9 183 10 300
1233 1.311711140649412 3.8954956123253548 4.1597260387332922 141 170 189 0.53135462727437488 6 418 20 1115 5 998 16 745
1802 -2.7703049545823881 2.9634876125431422 8.0713593080475761 170 177 161 0.82278974895869661 21 1176 22 1437 9 1819
2343 -1.273027839885509 3.6565255575883899 5.2930303913511461 122 99 138 0.31362961517354743 23 801 10 779 11 1368
1234 0.89018175016530332 5.6996106429062765 4.0879340921085872 159 162 198 0.65866592547710889 2 1583 6 850 20 1126 5 993 21 456
2086 -2.4011018264665016 1.3028509597294093 9.7935886367670673 201 148 5 0.096424626472435215 17 2081 19 2097 18 2150
1803 -0.03182144038118951 2.6946385008891318 6.254860569000452 104 129 165 0.3488599450402935 21 1037 22 1450 9 1449 23 1392 3 1209
2344 5.0274340988996276 6.0937900493113997 3.6161717685688437 166 200 236 0.48757271689469678 23 131 10 1133 11 827
2087 2.9267530074855914 6.8609488317205356 3.5259274425237392 148 145 105 0.81617820227196702 17 2239 18 2186
2345 1.1481731807296369 3.5364812846320248 5.4783539311856178 9 11 17 0.61816428852604199 23 458 10 1321
1790 1.9768893107292453 2.6033183366635662 5.9784750410346641 150 122 131 1.1658775200949647 21 1089 22 1275 9 1492
2331 -1.7132033185357192 3.3590484670356111 5.0969272768274774 154 96 153 0.69217514802182567 23 1307 12 1824 11 1552
1222 1.2702010536821167 3.7069363847848154 5.2163771032808226 88 109 131 0.67735559978880855 19 1190 20 886 5 1143 16 928
2233 -0.95361877780731674 3.5079364805542705 6.2632544598970252 92 59 18 2.5296842023015098 3 2064 8 2080 4 1854
1819 1.1234532363095191 2.1330444938081832 6.7575291115916016 135 165 199 0.76476053446114312 16 1052 22 1657 3 1541 8 1555 4 1510
2360 4.3558678493057874 5.9525259586742267 4.3884396668581971 30 58 91 0.41940050163763831 12 1244 11 1586
1251 0.17699639609886383 3.3721088769504268 6.3089496870125066 95 95 122 0.40177596749104572 19 1424 20 1376 18 1372
2103 0.77957031140655475 3.7276846730994335 5.3386517239885896 9 18 38 0.39423275586017636 17 827 3 317 8 935
2301 0.36827045886174203 10.328273753283185 -0.13272096347836215 73 104 71 0.99033789340274936 4 30 12 20 11 117
1192 -3.2039613968263954 4.7568407459105764 4.2298536227605403 82 75 84 0.68817939543859785 19 639 20 140 9 199 23 157 4 1196
1806 1.5748861076894549 2.0397406473153503 7.0848662756644405 102 129 158 0.99822632252387178 21 902 22 1515 3 1688 8 1558
2347 4.9382483864535081 6.0773182914858532 3.6105979172313178 96 142 179 1.9951912010479822 23 705 10 1469 11 825
1238 -2.7930830442281507 4.4526263240742052 4.2972778643204341 148 128 163 0.45336452081180467 2 1725 20 1180 1 920 5 1165
2230 1.163619419791682 3.917511808791819 4.1714330804809938 90 151 190 0.95168724295511031 3 1995 16 1636 8 2030 12 1959
1816 1.4482796250476793 3.6942471962869341 5.1521789700174763 11 20 32 0.36646150881682199 21 1517 22 1609 9 1805
2357 -1.4892075250131835 3.3632853215917531 5.1744214598018354 148 83 143 1.493408435258446 12 1322 23 791 11 1349
1248 -2.4285993388927301 4.1256219094057114 4.4898052336490224 165 127 180 0.35613081603120089 19 1803 20 1330 18 2101
2100 1.5056344694124228 3.3167283081515744 5.4158631192406839 85 101 117 0.34308487608989013 23 844 3 279 11 1202
2229 0.64533517824177 4.3147050006039311 4.6180865201128691 140 172 192 0.41823949008627331 3 2102 8 2009 4 1831
1815 -0.99836081824333722 4.0125955952386496 5.111581906909568 93 109 157 0.82541659581257332 21 1331 22 1581 9 1596 23 1519
2356 0.19948138625273265 3.9592216789402217 4.7366575254841949 97 110 148 0.47142549023581953 12 1274 23 1038 11 1140
1247 -3.4108461149539129 4.6814647750562539 4.5176120590689477 35 19 26 0.29453275471397306 13 1745 20 1312 1 1075
2099 1.112715191887506 4.0481356147409659 5.1365466704374292 6 13 29 1.9016157077355775 5 481 3 262 8 495 4 633
2228 -2.4246320357530333 8.3002942932754156 2.1851069159300827 20 27 35 1.0094685584133156 3 1872 8 2002 4 1743 12 1753
1814 -2.9662979485747014 2.9537900462812385 5.9498046961051703 149 200 253 1.3514973048364427 21 1122 22 1575 9 1774 23 1840
2355 -26.182396764938623 41.083299527388064 -16.89900932053893 105 114 118 0.46433947718236757 10 596 11 1028
1246 -0.98477965494192965 1.3328930239774146 7.4886915441794031 114 153 135 0.8377206120556896 13 195 19 1373 20 1298
2098 1.1363977032589405 4.2596534965411905 4.9573057614661495 74 78 92 0.56111597997264506 23 297 3 241 4 624
1813 -2.9662979485747014 2.9537900462812385 5.9498046961051703 149 200 253 1.3514973048364427 21 1121 22 1574 9 1775 23 1841
2354 1.5979593774924803 3.3161071756765672 5.4349326115246397 9 13 22 0.42878229698811765 12 799 23 460 11 971
1245 2.0909459821816987 4.0720669338087365 4.141994417591544 103 99 127 1.0281432132143866 2 1793 20 1285 1 1229 5 1281 21 1376 22 1417 10 1429
2097 -0.46639365862185 6.5025222509220599 4.0254727019146177 135 115 110 0.70481008887757002 22 99 23 148 3 225
1812 -1.879367190156314 3.2879423934850802 5.2209167579120992 178 142 199 0.21161095570347196 21 1155 22 1567 23 1675
2353 -0.27942870984701956 0.55744257061090186 4.5985060373849524 130 156 176 0.30481986822508611 12 1439 11 654
1244 -3.2919666729602928 7.2385414043216816 3.5678594289538621 178 173 162 1.0742031473047859 7 1850 20 1239 1 203 16 1229
2096 1.1603159376372636 4.0255237593406283 4.7657692586401472 94 96 106 0.6140502691113553 23 260 3 221 11 865
1811 -1.4354005536062422 3.7139141440212629 4.9813530636987373 134 149 177 0.64722636388341059 21 1434 22 1566 9 1572
2352 0.62105406246668682 7.716605547894388 2.5610533966179547 161 178 220 0.62531072987654379 3 71 10 322 11 222
1243 1.2486999730604218 2.0845749405377614 6.8046117783396962 127 156 193 1.077438323727784 19 1125 20 1237 5 1384 18 1328
2095 0.8642818361798561 7.0012733819259481 3.3667751832296182 130 144 179 0.22849937285097607 23 95 3 141 4 113 12 165
1810 -1.8493289330846494 3.293958862388485 5.0860465067867429 174 142 197 0.61276841041307384 21 1300 22 1563 9 1764 23 1667 12 1987 11 1825
2351 -2.4660702441231144 5.1049469925379274 4.2523746379151079 115 75 49 1.7804480174376782 5 1299 19 1691 16 1237 21 1295 22 1527 10 1370 21 946 9 1293 23 1245
1242 -3.0701556303678621 6.8207673096910568 3.9088096103087153 119 97 96 0.63296887905819188 7 1688 20 1235 9 1511
2094 0.31727279763461963 8.6240893144943165 1.5944680066559793 165 114 139 0.51784002658171668 16 440 3 14 4 81 12 95
1809 -1.6635165127037075 3.440245035335681 4.9880038487280451 135 85 140 0.23002611704468237 21 1160 22 1561 10 1378
2350 1.8371140716601473 4.0045572760490389 4.2050356784059613 118 140 152 1.1656540781067706 21 1373 23 1486 10 1678 11 1530
1241 -2.3168713180246328 4.7473468361523485 4.5348941195095618 147 122 147 0.35286213413174006 2 1751 20 1209 1 682 5 867
2093 0.30140348830795805 6.543142729378677 3.9546173692710331 133 123 95 2.2079341578213327 20 1969 18 2303 2 2389 14 1746 6 1301 2 2162 7 1949 19 2328 7 2116 17 2347 20 1689 1 1629 5 1505
1808 -1.9762695462214452 4.7300992189812758 4.5558950070262814 160 150 179 0.4500046433210998 21 1162 22 1546 9 1541
2349 0.22209417247831365 8.7099098920082358 1.5290805137371923 197 42 61 2.0324385237458937 21 1840 10 1647 9 2169
1240 -1.5069363704024865 3.4311000439149133 4.9633538752928148 128 109 157 0.33388813299575543 19 1453 20 1193 1 1113
2092 3.5646653687951644 3.4253777662107003 7.0874894570845743 162 157 121 1.83843924045816 13 2246 2 2134 14 1495 7 1795 15 2067 17 1939 18 1864 6 1427 7 1899 19 1956 20 1970 2 2249 16 1705
1807 -2.7506949617734571 4.803201795491189 4.2252454582388781 25 23 34 1.2438236169224588 1 930 15 2007 22 1523 10 657
2348 -0.76445847724185712 8.9878349710685796 1.462097500615839 213 184 141 0.6417521208868654 12 1602 10 1509 11 1487
1239 -1.7911749189021777 3.661677009570468 4.6640642207047591 145 121 167 0.81307528672807938 6 898 20 1191 1 944 5 1051
2091 -2.3811668532935122 3.5315434667752781 5.8361449106031102 109 67 17 1.9432217197269408 19 2440 18 2416
1805 -0.70353170938714416 1.5208478234899059 7.1601034530404934 22 60 58 0.51587636817531113 21 1022 22 1482 9 1489
2346 0.42204429120287862 10.283415783927387 -0.20549738481313748 7 10 10 0.95501638727889626 12 1580 10 1369 11 1266
1237 -1.8168334993603938 2.7212593917832359 6.1640964967071437 0 63 129 0.22855784908724089 6 900 20 1168 5 1194
2089 -3.1091655886565319 3.0630723502706747 5.6570615103658408 194 204 220 0.8218872911161279 7 1724 19 2260 18 2350
2329 0.8314050408297029 4.158317471075236 4.7329845574145795 112 144 168 0.50927342429683342 23 1505 12 1793 11 1703
1220 0.99856826746311034 3.7148394595277932 5.2509535989189233 15 30 54 0.82790055637519966 19 310 20 875 1 513 5 788 16 718 21 480 18 831 8 954 3 290 4 877 12 403
2328 1.4547044576591048 3.8530271065425423 4.3670751415310338 89 116 130 0.63612923841236579 23 1809 12 1776 11 1809
2327 1.3759906414027676 3.8378191796832333 4.3339216604302067 117 155 179 0.5762140193924713 3 1598 12 1772 8 1436
2326 4.7767515283356428 5.7377726866880634 4.1422537946845868 4 11 5 0.6074932586679207 23 1928 12 1761 11 2042
1217 0.23953363110625303 3.0113756065509647 6.2737539858701252 104 129 165 1.0014685223183599 19 824 20 822 5 1110 16 1040 22 1453 10 1458
2325 1.8391904801345418 8.8455956240230993 1.3724472947412867 209 201 191 1.2418451719388657 4 1569 23 1741 12 1734 10 1659
1216 0.28227235547217083 2.9540339261972668 6.3149785886204368 102 127 163 0.6323089830048888 6 658 20 821 1 790 5 1111 16 675 9 1453 22 1234 23 1387
2324 1.8461331191288637 8.8713599403495476 1.3621532715543072 209 201 191 1.2516808477993451 4 1568 12 1733 11 1655
1215 -2.9031477231290159 6.5192650044298164 4.163564217584538 203 197 218 0.45988367031378569 14 1017 20 819 1 235 21 676
2323 -1.310625951300346 3.5920366300091109 5.3304708484111281 117 78 119 0.76858860233288306 3 1153 12 1685 11 1577
2322 -1.2367540484751598 3.6746993468190103 5.3542998635272374 141 118 156 0.53651811561664253 23 1328 12 1684 10 1270 11 1719
1213 2.0849545715565361 0.72977348882065307 10.182189341581262 47 50 59 0.071979440596557434 6 384 20 803
2321 -0.0554563326564982 3.9768257085437582 5.6002289033204979 36 39 60 0.8091488783156936 3 1119 12 1677 11 1616
1212 -0.36454720912384658 2.9987153802998714 6.0362725461440681 1 6 22 0.34984917693426515 2 363 20 792 18 264
2320 4.3438869804228881 5.9588548768806087 4.4886108703257781 8 16 26 1.4550081639597439 3 1740 12 1627 11 1958
2319 1.8900053134508044 4.0810400275029259 4.1080362972284235 182 178 202 0.97116967084513617 23 1796 12 1614 11 1684
1210 -1.6183081203390608 3.2748233614402 5.2958831046546733 156 116 174 0.30467495067581357 17 859 20 734 5 612
2318 -0.94204418403562129 10.234886799727022 0.17323903220700954 56 104 57 1.3529097429828489 8 1715 12 1592 11 1484
1209 -2.6547525494311355 3.446628006506498 5.7942496928052183 110 116 147 0.62209238451141402 7 223 20 680 1 661
2317 -0.94204418403562129 10.234886799727022 0.17323903220700954 56 104 57 1.3529097429828489 8 1716 12 1591 11 1485
1208 0.38084603562007513 8.6211729602875895 1.6117928124410597 105 54 99 0.31808131499675185 6 730 20 653 1 554 5 442 21 367
2316 -1.4769917756288842 3.3975326445431788 5.2257167040814716 137 85 138 0.45462795451893456 23 1070 12 1524 10 1019 11 1355
1207 0.59532848425667206 7.7689969263810479 2.4871956238220014 128 150 194 0.45722754872727761 6 440 20 634 5 470
2315 -1.4406116089381134 3.4373233781922412 5.102382277686659 103 61 89 0.28271534870724829 3 866 12 1506 11 1344
1206 0.85393441745058529 6.9932415812740185 3.3628386221124331 120 142 183 0.71827200827895876 6 434 20 602 5 496 16 459 17 1340 21 439 1 569 9 338 18 1059
2314 -1.7763579069245767 3.5160669874421377 4.7876898098507361 162 140 183 0.63361578233769345 23 1036 12 1485 11 1114
1205 0.5324385978756202 5.609979477630314 4.627818017406109 90 106 144 0.42517906762587709 6 379 20 550 18 973
2313 0.82165490241641492 8.9583319491716011 1.405969156732167 211 204 187 0.34257182114235779 23 1607 12 1420 11 1277
1204 1.0326049463797187 3.4811987308466459 5.3405190813879528 108 123 143 0.41915146794840358 19 258 20 462 1 504 5 790 18 207
2312 0.27530338861057818 3.4350836825231692 6.2245855148512081 147 34 49 0.68750526073644325 3 1147 23 887 12 1379
1203 0.46471175704862067 3.3766188607143532 6.5265933133661749 46 17 31 1.0174376906927129 6 311 19 223 20 407
2311 1.3922832254080322 3.3230828987665983 5.4021922173387775 97 115 133 0.35786476745279328 3 788 23 1346 12 1289 11 1614
1202 1.2843379297812736 2.0548844923048257 6.8563003160082827 131 150 191 0.7638566488214833 19 67 20 392 5 1136 1 829 21 1251 18 42
2310 0.72194071390032499 4.180965297603958 4.6112272356771413 141 185 203 0.34420080228484662 3 224 23 748 12 1260
1201 -2.8510953630539246 6.6482773797748438 4.0394738555654426 145 162 200 0.58094014916928938 7 1051 20 381 16 119
2309 0.014586944069999913 3.9751354940264298 5.6748716178744321 92 102 132 0.34152954583190193 3 392 12 1111 11 589
1200 -2.8510953630539246 6.6482773797748438 4.0394738555654426 145 162 200 0.58094014916928938 7 1052 20 380 16 120
2308 1.2069371954798891 3.9894295969380784 4.7180200813446254 73 75 81 0.50062481984730611 3 214 12 1026 11 859
1199 -2.7041389871229558 4.776725342407393 4.266624833552676 94 73 63 0.88388125278346341 14 946 19 624 20 250 16 50
2307 -1.4847174149178803 3.3759406436870076 5.2011576516991358 157 111 164 0.27435823273992982 23 341 12 864 11 439
1198 -2.7010962780496839 4.7276905367915001 4.3491022505094445 34 2 1 0.36861808570765509 14 690 20 245 5 49 16 531 21 50 9 265
2306 -0.89661169702041521 4.0371744231196987 5.214157867791819 126 134 170 0.83600028337320065 3 831 12 835 11 903 23 326
1197 -1.8511496480515932 3.7093882166927306 4.6096838307432177 130 97 150 0.75320762308571854 19 460 20 239 16 157 5 107
2304 1.5962317352807389 3.9385699325429187 4.1633726206438642 160 157 175 1.850158118970743 22 1184 12 672 10 1290
1195 -2.2083740626347277 4.0696367540400589 4.4535385224988193 171 132 183 0.83947709115578828 6 30 20 228 1 153 16 566
2303 -2.2378940216315613 6.3860419743712411 4.3233236304117115 118 106 90 0.14677045416339152 4 437 12 350
1194 -2.4511859523846402 4.150136617526222 4.4843524929737999 179 134 190 0.36143484505077844 19 530 20 183 18 1052
2302 0.36705136393894394 10.31710830436973 -0.13081885107504493 73 104 71 0.94988341968329748 4 29 12 21 10 987 11 118
1193 -3.04557763185338 4.7769696149558101 4.1565598604383709 116 72 65 0.3754720482457376 19 642 20 178
2300 0.98924619381468115 4.7553341231334141 4.4764347099738497 164 178 195 1.9251625177778227 8 2286 4 1966
2299 -0.10558556775695174 6.5649171253345315 3.9398072106374666 127 109 112 0.91417929814065635 3 2097 8 2109 4 1833 22 2223 9 2319 23 2119
1190 -2.2881135449908956 4.5980413908629787 4.5333036018674822 151 122 168 0.13344215084830841 17 2464 19 2495
2227 -1.6670464515128924 3.0985487151151103 5.5083332137511904 139 103 153 1.5396382193740179 3 2062 12 2144 11 2153
2226 0.79275283827434517 9.0857507799715851 1.1864229498103454 180 178 168 1.2600900739356431 16 1651 8 1933 4 1588
2225 -3.4410511557359595 8.942819843553929 1.758322889846458 195 167 107 0.77909070987550799 3 1752 16 1468 8 1886 12 1609
2224 -0.31579505500981353 2.4982270590968736 6.0587298934954266 67 82 110 1.9349341232819999 3 2059 8 1859 4 1674
2223 -1.5195727245591382 3.4343549636021655 5.0385068669175306 108 56 94 0.4792888053807311 3 1918 8 1856 4 1770
2222 -3.3355209665224073 5.366245857609341 3.6284647096875529 131 91 67 1.6188334833401015 3 1775 8 1853 4 1773
2221 -3.4455555687202661 5.214287844685729 3.7652352944047616 148 105 82 0.52548577828832943 3 1902 8 1846 4 1775
2220 -1.5637283048234898 3.045671033105696 5.4433484552776488 161 141 190 0.30333464645591651 3 1937 8 1845 12 2055
2219 0.16982766798603061 8.7952139612815614 1.6252371371698584 172 193 239 0.79690178504363429 3 1732 8 1815 11 1782
2218 1.2938167274048507 3.7957488981039886 5.1082205345682912 75 94 112 2.2827594094136514 3 1613 18 1883 8 1799
2217 0.43072271130018669 4.289967071261942 4.73447542882493 92 111 149 0.75099629322026029 3 1881 8 1792 4 1503
2216 0.32638999633371346 4.0593182726586807 5.6189504262259904 66 78 94 0.57019146479905658 3 1900 8 1781 4 1647 12 1985
2215 0.22071212958391712 4.1055468954232923 5.4951163885643739 28 22 25 1.2956753110913679 3 1897 8 1779 4 1644 12 1983
2214 -2.6944227394966824 5.0930822429450053 3.9619963990537865 139 100 81 0.2013128995261414 3 1774 8 1760 4 1763
2213 1.2199006811558939 4.0459950597254037 4.7799862385137812 15 16 26 0.65157503605423184 3 1876 8 1707 4 1623
2212 0.94909875612399464 4.0004226175235287 4.5595604102983209 83 112 133 1.6117143292275613 3 1758 8 1706 4 1479 12 1881 11 1925
2211 0.64107581487359266 6.2933462765263499 4.175166878994049 187 176 159 0.48943000942530973 3 1601 8 1705 4 1493
2210 0.76305883499918392 4.1255304835037698 4.5074907327967217 139 162 181 1.0495273687493412 3 1759 8 1703 4 1627 12 1882
2209 0.67983202238162665 4.1530475983827264 4.4925209192070623 113 126 142 0.58124099469109092 3 1603 8 1702 4 1485 12 1883
2208 0.48491396152567379 4.0728137452777107 4.7821324816236617 59 71 110 0.63086466759292703 3 1616 8 1693 4 1502 11 1933 12 1890
2207 -1.5877759594515815 3.3650412989799388 5.025187892722716 161 129 177 0.058359626918632668 3 1657 8 1651 4 1541
2206 -2.0140226933245482 3.2796614909165989 5.2064852447542993 161 91 152 0.55467353182143075 3 1686 8 1630 12 1925
2205 1.9633765441825983 2.1308918717513623 6.3557938959105691 135 96 78 1.2352299461961551 3 1641 8 1574 12 1935
2204 -3.416282900653516 7.9293508178329937 2.7856220414844208 116 88 75 0.344345398608151 3 1320 8 1556 12 1008
2203 -1.7583167681472398 3.3894916546122213 4.9281652472534905 167 130 183 0.38640793118846622 3 1515 8 1516 4 1415
2202 -1.8073600551608382 4.5287175628306517 5.8317618484946294 180 131 185 1.5910937476625919 18 1014 4 1558
2201 1.0386563270879519 10.782619199478466 0.12248378767903578 38 42 41 0.49704165450570098 9 1500 8 1453 4 1213
2200 1.0386563270879519 10.782619199478466 0.12248378767903578 38 42 41 0.49704165450570098 9 1501 8 1452 4 1214
2199 -1.9731789655348164 8.7466599547375452 1.777753217051719 185 182 171 0.46623269079148949 3 131 8 1418 4 878
2198 0.57197403067114549 4.3401812190226989 4.6555056110098878 127 149 181 0.42321067090807052 3 1317 8 1415 4 1351
2197 -0.63984813111145655 7.9455947663486493 3.5222967321508429 176 201 247 0.80026487802915636 21 1207 8 1411
2196 -0.014620540615726832 3.3434048537890724 6.144224563945361 89 107 143 1.0903439341848182 3 1361 8 1371 4 1261
2195 -1.4633626317037942 3.4372544871398203 5.1160705934767092 135 101 148 0.25839950579857102 3 1349 8 1347 4 1279
2194 -0.38525678202992691 2.4174774885361701 6.113190416562543 91 111 134 1.3445781657086107 3 1693 8 1344 4 1283
2193 -1.597922250629368 3.3577693915901881 5.1348455395665615 156 110 166 0.39479356598926019 3 1355 8 1332 4 1419 12 1674
2192 -1.597922250629368 3.3577693915901881 5.1348455395665615 156 110 166 0.39479356598926019 3 1354 8 1331 4 1418 12 1675
2191 -1.6789152649265415 3.4150390587619226 5.0580953991255324 142 82 138 0.31397194891690455 3 1155 8 1329 4 1291
2190 -1.7444177895296655 3.3693919269812769 5.0415889946017334 137 72 130 0.21376196051139049 16 982 8 1320 4 1425
2189 -1.752469909548628 3.34098347830622 5.1131077444832229 171 124 176 0.32960824492742019 16 822 8 1316 4 1430
2188 -1.8341447404294162 3.2658039977341611 5.2665865586543665 139 53 120 1.1574182128642718 3 1538 8 1303 4 1556
2186 1.0759596342656281 4.2519848606293644 4.9516836432009406 67 74 86 0.32324864807361092 3 1318 8 1222 4 1230
2185 -2.4298367850831846 5.4019309532211155 4.1920405430687744 74 27 10 0.6011898026942738 3 816 8 1152 4 1120
2184 -0.35386308649226533 2.5129580459096372 6.0177666742003044 98 119 150 0.84213553091913418 3 1396 8 1138
2183 -0.38821275171486525 2.5120821026167195 6.0057424651544826 77 97 131 0.62262192811397155 3 1398 8 1137 4 1124
2182 -2.0145387641194521 3.6213339171185632 4.706289494166132 172 123 182 0.75795846342361406 16 574 8 1120 4 1290 1 161
2181 -2.016107212215656 3.3337449217163249 5.1336761739012218 165 106 167 0.28005315878839382 3 1197 8 1079 4 1194
2180 -2.0419789717945962 3.3448713613935661 5.1107462089463587 187 136 191 0.32517191615597951 3 918 8 1078 4 1195
2179 0.72715616198837263 4.1771185928118477 4.586453739408193 98 142 165 0.54779145565092546 3 223 8 967 12 715
2178 1.2204160153667725 3.6944126134727373 5.1961643169624825 87 108 125 0.82356400091906645 3 780 8 965 4 865
2177 0.24286035873157247 3.3802751106191149 6.2909594340113495 139 51 69 0.59218281540712481 3 885 8 887 4 912
2176 -2.273705192567534 5.492498121440998 3.9209717825885573 188 197 233 0.57748868785215879 3 799 8 886 4 724 12 720
2175 -1.594406343503767 3.301119956943916 5.2951831298775911 118 66 123 0.11925427031704393 9 496 8 800 4 976
2174 -1.4454019465917152 3.1792406502589556 5.4376533497446546 123 98 147 0.14325056715781351 3 1198 8 798 4 1160
2173 -2.9003476925495257 4.6893981482006302 4.2962044735893814 51 19 5 0.46177638226689405 22 10 8 789 4 983
2172 -2.9003476925495257 4.6893981482006302 4.2962044735893814 51 19 5 0.46177638226689405 22 9 8 788 4 984
2170 4.20144673324958 6.3812374079386514 4.0373643571420441 68 62 69 0.46385357340193401 3 25 8 667 12 670
2169 0.6418968801086703 8.8634259162357534 1.4196805355445328 139 95 99 0.48765009929032993 16 930 8 645 4 62
2167 0.40953744367272099 6.6442679913857594 3.9083188020474067 149 137 130 0.29821568754372935 3 193 8 529 4 189
2166 1.8978453268790121 2.2909490876155347 6.1507141354442503 95 118 147 0.63679449435126545 3 365 8 469 12 907
2165 0.87964059486669632 3.6748430891444031 5.3019747968052604 85 107 126 0.7718049716168448 3 307 8 447 12 428
2164 0.90920331814212996 2.3620150051610271 6.6394393216003227 112 140 174 0.25109892909460851 3 549 8 318
2163 -2.1461276552926285 6.4058414095428748 4.3316006894299184 80 63 57 0.12260997970674026 3 342 12 768
2162 0.38492065640950424 2.6781184209294135 6.8274032073756947 96 103 131 0.92260201126702357 22 1472 8 238
2161 -1.5343542546374964 3.3509832646794946 5.1546143528351944 175 138 191 0.42858432037173022 3 883 8 179 4 1136 12 1098
2160 -1.6432854863484891 3.3024373363974764 5.2064894708552654 151 100 160 1.2480306746131333 23 347 8 155 4 971 12 1331
2159 -3.1259050899794376 4.7957893170678796 4.1555513264937112 208 194 203 0.47795773043028983 3 407 8 133 4 535
2158 -2.1527648553197425 3.4506653122036903 4.9721065869249754 151 87 151 0.34285782266490705 3 518 8 102 4 1003
2157 -0.8239060416554409 3.9660633560338057 5.1232887733495716 103 116 153 1.409755338327777 3 2193 8 2144 16 1766 4 1910
2156 4.1607854021714932 4.1769808266387649 6.2198907210621108 189 142 32 1.8334866567828625 17 2180 18 2127 3 2099 22 2369 23 2212 12 2106
2155 1.3018115458557808 6.9069912348966938 3.49548409821523 153 144 100 1.8161321795092298 23 2029 3 1988 6 1681 19 2469 20 2134 1 2047 5 1879 16 1811 21 1964 22 2327 9 2419 18 2396 8 2034
2154 -1.1925048140070085 6.1917169254099571 4.4714569100888841 171 177 181 1.2751655434507203 16 1990 3 2328
2153 -2.0438026740605388 8.2775453150163703 2.3853643927714399 15 20 27 1.708669546333035 16 1971 8 2268 4 1952
2152 -0.21200069481684117 7.4436816718071226 2.9718416638948559 179 199 250 1.9935291067751426 9 2549 23 2269 3 2283 8 2253 12 2175 10 2014 11 2195
2151 0.98670633439390343 3.6526278541463677 5.2198180346611771 74 92 113 0.8830277743638949 9 2559 23 2248 3 2268
2150 0.8954466468940494 4.1370511953027398 4.7509771086928092 116 130 149 0.51510414007486593 23 2277 3 2266
2149 0.65901756759611796 2.4395505248445049 6.8653041661376255 187 118 65 0.79934638848270734 16 1858 3 2253 8 2184
2148 3.7174010875804995 4.749661335672414 5.7885165998169272 169 127 54 2.2354111962769085 9 2546 23 2284 3 2234 12 2160
2147 1.2636553385726859 6.8242493731702183 3.3837573822058831 192 158 96 0.93557213198767919 17 2445 3 2225
2145 -2.9318394925888231 5.2517747539587551 3.8631254228561245 145 110 95 2.5728824122816927 9 2400 3 2188 4 1888
2144 -3.2521072527998909 8.4606447834884637 2.229747744224178 171 32 57 2.4217750193667262 23 2111 3 2169 8 2195
2142 0.28309177889119574 8.7109762698401276 1.8336075910410483 0 0 0 0.91267585410142837 9 2466 23 2170
2141 3.8930814473216202 4.0614640618798479 6.3193256027285925 174 133 57 0.83277389598909202 23 2214 3 2103 8 2033 4 1786
2140 -3.3395140615400054 8.2388284502584597 2.4843023282044454 179 205 250 1.3359555229671987 23 2014 3 2101 8 2094
2139 3.878542343211282 4.6496886312374075 5.771549225913895 168 126 53 0.80940701929420877 23 2205 3 2090 12 2101
2138 0.89117585227347951 3.5869772329112437 5.3289250326964543 86 101 125 1.141813458979082 9 2263 3 2014 8 2105 12 1969 23 1829
2136 0.74549182323438157 2.4896875832622669 6.7736871420707443 166 115 72 2.1485873525261177 9 2279 3 1939 8 1989 16 1505 4 1845
2135 2.3623089970478102 2.1376400218220226 7.0293935121039697 26 17 14 0.90175348961925261 16 944 3 1923 8 1690
2133 3.6306573186433844 3.8070248291857185 6.6181474500976165 170 128 55 0.26576307685118383 23 2096 3 1882
2132 3.9807479534206278 4.1772203751401538 6.202772434641262 167 157 129 1.1210257235569165 23 2091 3 1877 8 1907 4 1607 12 1970
2131 -2.4162676157650078 8.3682463548354225 2.1747511044192271 24 29 40 1.2513502443679065 16 1581 3 1873 8 2003 4 1744 6 1556
2129 0.21930265277034772 8.7126362620315305 1.5250545632015564 165 17 27 1.8056784484696677 9 2168 3 1840 21 1839 10 1646
2128 -1.5100438740859374 3.3839916491780424 5.3343996342795066 125 76 117 0.50188564585146056 9 1935 3 1799 8 1848 4 1774
2127 -2.7504567348209168 5.6027370205618965 3.734626339901189 181 203 254 1.2373466594121407 23 1623 3 1769 4 1524 8 1868 11 1498
2126 -1.6652354360195396 3.3462952445144873 5.1199643617252901 178 143 188 0.49850701430272837 23 1521 3 1662 8 1512 12 1914 11 1555
2125 -2.7275895424650547 4.8493250276104423 4.1874899194717736 135 103 83 0.52323333405357986 23 1475 3 1640 8 1650 4 1544
2124 -3.255409110473336 5.3934327452128885 3.6208945198805744 137 102 80 1.4103866587264038 9 1857 3 1631 8 1750
2123 2.0972572375545511 2.547040078370467 6.0121652041264726 164 169 192 1.6354097109846744 22 1654 23 1581 3 1623 8 1696 4 1483
2122 -3.1802177466525192 5.284760965887136 3.7053609787564907 156 126 110 0.66654527689267828 9 1860 3 1494 8 1652 4 1542
2121 -0.85452434065628935 3.3709732485452868 6.313252688831712 119 129 153 2.6921672660395743 16 647 3 1407 4 1551 8 1643
2120 -1.3713002695860714 3.084546897804306 5.5912412047815421 147 138 175 0.69196620297151423 22 853 3 1217 11 1391
2119 -1.9470738347902756 3.3256846056070364 5.082866173053203 151 81 140 0.8172860570847934 9 425 23 1063 3 1186
2118 -1.5764763035715892 3.3437780351600552 5.1610917660573365 171 137 184 0.2824935721508855 9 1034 3 1167 12 1512
2117 -1.4489141364490092 3.3972260999193926 5.2091909361041875 141 106 150 0.98588081042450815 23 1069 3 1157 8 830 12 1517 10 1018 11 1352
2116 0.061725640806185145 3.9734006052149642 5.5309616745222883 70 80 110 0.64768474543214394 23 1101 3 1106 12 1507 11 1410
2115 -2.9716492849678771 5.4138520516316015 3.6804386948171643 76 37 26 1.3052473866312269 23 101 3 1093 8 1144 10 134 11 217
2114 -0.33339458327683885 6.4798344789481765 4.0663679701470672 189 150 89 0.80150952181950819 9 961 21 805 3 1079 8 943
2113 -1.6607038538550078 3.307437220296451 5.2771731491599931 149 103 155 0.89939012545092367 23 806 3 907 12 1338
2111 -1.7344950212225356 3.3401728269386139 5.1398387396434648 155 104 156 0.8019558639737534 23 783 3 893 12 1324 11 844
2110 -1.4742636120348784 3.3728894251103703 5.2818846549770786 136 99 138 0.46455806486308709 23 807 3 889 12 1334
2109 -1.4478171209098774 3.3829639934015518 5.2497152288875402 149 121 162 0.56578334004017816 23 799 3 884 8 824 4 1135 12 1326
2108 -3.1465187731985833 4.7714790224071351 4.2017059206181138 67 56 75 0.44164591627953803 16 4 3 850 8 767
2107 0.36193350448592682 4.0387092521316408 4.9717932253576116 27 40 69 0.55823097711477077 23 1299 3 792 8 435
2106 0.91556189065314286 6.675431312731896 3.7557586200227724 75 28 24 0.35360765218190116 22 781 3 744 8 562 12 1009
2104 -3.1425867477212095 4.7331749313881186 4.1535231837226485 208 206 216 1.0230655569018521 23 149 3 411 4 819
2102 -1.6291364565861262 6.5859860489188051 4.1920764523110119 131 118 122 1.6462264966458289 22 65 3 302 4 693
2101 1.8609767050003017 3.1926227115971093 5.7692075793480644 94 102 116 0.54703883782938434 9 776 22 976 3 301 12 1073
1789 1.4253516392306307 2.971651892729529 6.0736019951577953 70 90 111 0.49885620634912309 16 454 21 896 22 1258 9 1471 23 1379
1788 0.44827110219214594 2.9026669755769023 6.5852139007519153 98 118 149 0.1566012514621779 1 432 22 1247 9 1193 23 1409
1787 0.2628479587976697 2.7944593577225745 6.4152726276743683 96 121 151 0.52554160800267347 1 413 22 1237 10 1596 22 1459
1786 0.38636130803130359 3.1162878007076231 6.4004984493646013 87 108 137 0.2129290492336455 16 341 22 1236 9 1178
1785 0.0022160379729287832 3.9934862029952503 5.5659110578839712 34 41 74 0.59776519523975247 21 826 22 1198 9 1406 23 1340 3 1333 8 1392 4 1370 12 1671 11 1613
1784 -2.6876271836561183 2.4015250087080315 6.2978866551438006 49 117 165 0.95798885120034394 21 635 22 1171 9 1379
1783 -1.4812314919839515 3.0698910496996845 5.4958836584860205 134 108 166 1.2734247154446101 21 969 22 1164 23 1113 9 532 3 937 4 1307 12 1368 10 1241 11 914
1782 -1.246772587400292 3.6330484903799829 5.4026200801574173 123 95 138 0.43771619217097579 21 987 22 1163 10 1405
1781 -1.1776684214997659 3.8648999301374891 5.3335991893381447 105 64 113 0.58464122611867797 21 759 22 1158 9 1052
1780 -1.472467202130717 3.1972723647849834 5.3536434537982327 158 135 185 0.33932271890728521 21 968 22 1153 9 1054
1779 -1.5676277551766682 3.3629910305679842 5.3141321643295578 116 58 114 0.51370968516912252 16 839 22 1146 9 1598 4 1429
1778 -2.7951201232931218 3.3549097218312802 5.7242386109271948 44 61 100 1.8770385481470047 5 548 21 941 22 1120
1777 0.49257150078545076 6.5931402465774251 3.8837263581275749 184 180 171 1.470683022283338 21 839 22 1108 8 1226 16 707 4 1052
1776 -1.759514898864615 3.6262375325523104 4.7417908849538346 156 144 182 0.42415907331708519 1 209 21 678 22 1096
1775 0.54217147971974577 7.7209181060079732 2.5631060568420434 167 188 235 0.44606472313044404 5 985 22 1075 9 900
1774 0.85002744579267064 8.0627444998586366 2.3321351026207822 138 113 86 1.2794466458234295 21 1359 22 1073 10 1269
1773 1.554656359918432 2.036694185652387 7.1380014912108907 36 52 82 0.56472085750509948 21 569 22 1042
1772 0.15831482271808614 2.9977611327048495 6.2044550273940891 120 145 177 0.28495747206989058 21 408 22 951 23 570
1771 -0.40183791771035798 2.4387614140569096 6.0151846238741831 122 153 186 0.39955939103475174 16 657 22 925 9 1158 23 1151 3 954
1770 -0.48675082197735148 2.4480881081198205 5.9892248256616201 4 12 37 0.38426484081767831 5 284 22 917 23 1147
1769 -0.46898165244679174 2.4561498192285445 5.9667798512013741 130 155 189 0.31650108997804444 5 286 22 914 23 891
1768 0.72660999122310455 3.6319613591902034 5.2424046440545027 103 129 149 2.0656349309249937 7 415 22 902 9 1128
1767 0.77848750189432492 4.5169643132166604 5.1684137673494464 36 43 37 1.087972056533304 21 468 22 894
1766 1.3147482429065476 3.8487893405029934 4.212820899474444 38 86 117 0.26661031342992286 21 1070 22 877 9 564
1765 -5.0339699362623769 3.9454879369883824 8.3673374083784804 62 77 92 1.3685228220497023 15 1095 22 875 9 581 7 1113 18 1511
1764 -5.0447962696896882 3.9508271673012034 8.3727291787820448 62 77 92 1.7396536720058184 7 1112 15 1096 22 874
1763 -0.13182930167922519 3.8439979783131046 5.0371654932040384 84 101 140 0.74666800766082375 21 356 22 866 9 1089 23 777 8 920 4 888 12 1287 10 810 11 1155
1762 1.5198703224586136 4.0884735588651608 3.9440825765094747 158 182 204 0.9348256242295474 21 491 22 855 8 611 4 843 10 355
1761 -1.5451716018662585 3.2219320961121194 5.3265452640737205 173 143 196 0.66577742956039698 21 964 22 833 9 508
1760 -1.7233809153612154 3.2876352039125876 5.2960723172383615 124 58 121 0.72445853962644058 21 158 22 817 9 486
1758 -1.8269852612840722 3.3009620373841946 5.1911345110207003 139 73 139 0.5787841828453113 21 682 22 797 9 1026 23 1317
1757 0.050305100999717883 4.9798234672660202 4.2031929394509815 75 71 94 1.4360261109526569 1 799 22 791 23 172
1756 -1.7919776442921513 3.5367186757727453 4.7891544384067792 150 117 172 0.23383438896634554 21 675 22 759 23 1035
1755 1.8772415073321276 3.1610883366761975 5.9550886138075496 54 71 83 0.048146626109893294 1 577 22 558
1754 0.26410349750304202 2.6977139295015422 6.570724462875984 94 116 143 0.56822903281259651 21 424 22 523 9 1191 23 1410
1753 -0.031430318332894808 2.715405176708495 6.2272882428635041 95 123 156 0.79726263933239483 5 708 22 476 23 1161 10 1095
1752 -0.20777078008483196 2.779717112835363 6.0971948669627176 97 121 160 0.27582055253188281 21 362 22 456 23 894
1751 1.3771350987327788 3.6825689037868248 5.2224809861680273 123 145 165 0.56667761119412163 16 467 21 528 22 445 9 688 5 503
1750 -1.1080416157875819 2.842783858176205 6.4808295293883447 135 73 119 0.16023558645889011 16 246 22 409 9 1143
1749 0.9837343098532193 3.925616905581613 5.1543711753632095 121 146 172 0.69197242920125368 16 421 22 385 9 625 4 208
1748 0.30576901403008538 4.0980742736560645 5.6232352332334088 97 112 126 1.5607673851393187 21 416 22 375 9 1414
1747 0.098272738271073579 3.9818407363262107 5.4871984678612797 91 110 140 0.5600401984729767 16 336 22 353 23 1097
1746 1.4560590093743513 4.0148240936504029 4.055579403014919 152 155 184 0.54194440780283193 21 486 22 316 9 548
1745 -1.4104502855018133 3.0470192285419513 5.539192869086996 115 91 150 0.35693336506846612 21 203 22 300 9 545
1744 -1.2095838344552812 3.6724279752617122 5.3806833059835606 129 105 149 0.6671805096954655 5 660 22 283 10 786 9 524
1743 -1.4478269598542433 3.4107059706225944 5.1395952009214492 105 63 115 0.59556356034740332 21 188 22 234 9 484
1742 -1.4478269598542433 3.4107059706225944 5.1395952009214492 105 63 115 0.59556356034740332 21 189 22 233 9 483
1741 -1.4422694620961414 4.0074043841341584 5.1012982628004035 137 147 176 0.92159256387701727 7 376 22 214
1740 1.2197511140608546 6.6855286717435245 3.6716385425180791 100 68 55 0.70965056669882509 21 488 22 184 10 841
1739 -1.5258863051835503 3.7323209368569543 4.9713233658826992 13 28 55 0.1349201608266834 21 183 22 182
1738 0.78330292980215999 6.6547496589677024 3.7525999207859 176 120 118 0.86647538992365902 21 443 22 147 9 382 3 747 10 829
1737 -0.67087287799252215 6.5082245917060106 4.1046378322872368 105 73 53 0.73914080788973424 21 340 22 96 9 333 3 246
1736 -0.76644351626379659 7.0587462398178307 3.4529685542488928 40 57 93 0.40328439111778047 14 513 22 37
1735 -2.7977950931192117 6.6020094274816596 4.1073386608676348 215 218 253 0.58181427775364514 7 1240 21 680 22 6
1734 3.0821959425489904 4.8881360847526105 5.5430659100850583 115 106 63 0.91771202344870884 1 2066 2 2462 13 2493 2 2379 14 1738 6 1521 16 1690 21 2073 22 2278 9 2451 23 2138 3 2096 8 2031 12 2034 4 1788 11 2160
1733 0.089273571777468808 8.7273817621136072 1.5224145367717674 150 45 87 0.8520676474109139 20 1445 1 1198 5 1253 16 1057 21 801 21 1204 6 985 16 918 9 864 4 849
1732 -1.4699281199094982 3.7685202513436828 4.9903119985505597 172 171 176 0.86968423331249478 13 1696 2 1276 6 782 15 1788 17 1484 20 1207 1 968 16 997 21 713 14 898 15 1371 22 793 18 1444
1731 -2.4957633663086196 6.7089201320849137 3.6889945693709656 177 197 251 1.370595906402589 16 1984 21 2168 9 2597
1730 0.89446394094640047 6.6353583260089364 3.9354063605357652 165 162 148 0.69998426965515925 6 1594 21 2097
1728 2.6706136266051717 3.6434308245559324 6.9397011866102458 121 88 30 0.1450146305123611 1 2055 21 2071 22 2364
1727 1.3992359008008446 1.5944519559389809 9.2734985680076125 162 125 39 1.1880158846949103 16 1787 21 2067 18 2121 19 2084
