# 3D point list with one line of data per point:
#   POINT3D_ID, X, Y, Z, R, G, B, ERROR, TRACK[] as (IMAGE_ID, POINT2D_IDX)
# Number of points: 370, mean track length: 4.691725978647687
881 0.2852908246934093 0.105096667368983 0.6535889019704634 169 131 65 0.8677087363161459 13 2047 7 1596
880 0.2852908246934093 0.105096667368983 0.6535889019704634 169 131 65 0.8677087363161459 13 2048 7 1595
879 -0.030999563117858047 0.17198934621064466 0.4274982667416697 103 127 162 1.0598006007588603 6 1154 7 1589 20 1494 2 1686
878 -0.4656662537228752 0.28042744691981125 0.4187365534817527 94 110 127 0.7759825092929225 2 1658 13 2113 7 1587
877 0.02977064983181075 0.3972353129340585 0.3216286601052444 144 155 185 0.6753845900058559 13 1772 7 1538 17 1680 16 1051 18 1622
876 -0.23031649256780817 0.37060763717583123 0.256653080419071 136 92 71 0.8909160215855444 13 2145 7 1516 15 2253 17 2155
874 -0.19701473155083588 0.33113302775680015 0.30015235581689 25 23 30 0.8434572428707311 2 1739 7 1496 15 2129
873 -0.08500827978833028 0.3041482357859191 0.3641140915034569 71 56 89 0.8152105047032719 6 926 7 1493 15 1975 17 1660 1 1136 5 1224
872 -0.2394117676317635 0.3284647686523983 0.31710423605693344 38 26 31 0.4166846323061585 13 1746 7 1486 15 2000 20 1313
871 0.1315226260147009 0.16214989459348395 0.43530399689806704 33 20 36 1.5339925533317251 13 1868 7 1463 15 1876 19 1390 20 1399 1 1209 16 939 21 1088 18 1324 8 944 3 370 4 1057 12 1155
870 -0.3853009600804427 0.29153622672621793 0.4162221358051981 9 10 10 0.7502898979545779 13 1941 7 1460 15 1989
869 -0.08269411452171452 0.20917980600076136 0.45267668366713504 112 38 76 0.5851178687813826 6 1034 7 1456 14 1195
868 -0.40124887748570837 0.27993329801965283 0.41448517470899393 47 66 95 1.7184299853883858 13 1939 7 1448 17 1884
867 -0.09297877088336795 0.4550402541612357 0.2961915423274678 173 156 134 1.6300302637406003 2 1370 7 1423 17 1562 1 770 5 939 21 1010 23 1246 8 1396
866 0.018807362191883954 0.3269636887456987 0.31768902406971866 80 101 132 0.5391289990226273 13 1958 7 1389 19 503
865 -0.26103766733998934 0.37154618701781084 0.25996743589737353 125 82 57 0.617254818066181 13 1777 7 1384 15 2023 17 1723
864 -0.08881473646891473 0.3228258881115807 0.33552610331184424 142 161 190 1.0023237140841241 13 1956 7 1377 15 1817
863 -0.1916332751817458 0.32349340914820135 0.3059661570511067 149 126 155 0.5798658119557004 13 1743 7 1366 17 1694 19 1284 20 1004 1 926 5 1029
862 -0.0953893285471047 0.25731346544929534 0.3541713334823753 62 63 87 1.180959629395539 13 1917 7 1341 19 1216
861 0.01566913199476712 0.2324531110685844 0.44636337532291454 83 86 113 0.24390177074554406 6 951 7 1338 17 1156
860 0.010655042496060118 0.23160074446579784 0.4417098233962712 64 65 94 1.9344209058686928 6 1071 7 1337 17 1160 20 1370 1 1329 5 1364 10 1792
859 -0.03497448331956607 0.23784416963011124 0.4351669831580454 71 75 108 0.641569774374598 6 1057 13 1409 7 1327 15 1578 14 1224 17 840 19 853 20 1049 5 1103 1 768
858 0.10358040213413267 0.18092250873389065 0.43643240699958136 113 143 175 1.018084900325848 13 1635 7 1311 19 785 15 843
857 -0.02855856578469607 0.1872546540467482 0.4168574013948354 52 72 108 1.3775807333422139 13 1365 7 1299 17 1128 19 1160 20 1351 1 990 16 1165 18 819
856 -0.46152444430418726 0.3002711894234691 0.4282612732132004 58 65 69 1.0439919558348045 2 894 13 1948 7 1295
855 -0.030114479299015083 0.181230276729852 0.4173346420325782 70 90 126 0.5218565115665246 6 934 7 1291 15 1547 17 1125 19 808 18 814
854 -0.1941796699720311 0.14135622740937062 0.6390998617715395 169 129 69 0.48773497877223604 6 885 7 1256 19 1573 18 1906
853 0.01689990022986494 0.40133888357764874 0.3203171746533248 145 151 177 0.3418696594127963 2 1369 13 1258 7 1237 17 1280 19 1293 20 900
852 0.029537340855406588 0.3859258115224169 0.3344632845180894 89 112 140 0.2358836822214382 13 1506 7 1231 19 1006
851 -0.2551871188090503 0.37181359781333573 0.25669934843089565 154 113 92 0.30850562381726115 13 1519 7 1211 15 1858
850 -0.21417091003433272 0.3285664150286142 0.29712930661821846 133 85 73 1.1526640244891555 13 1210 7 1182 19 1042
849 -0.18052532901181031 0.3141065618707433 0.3096321824901932 133 89 140 0.4797911088869202 13 1733 7 1176 17 973 19 1004
848 -0.07918542421863432 0.28737276193455014 0.3648214760721143 104 89 126 0.670210063747517 6 794 7 1165 17 1488 19 454
847 -0.14765594479868685 0.27805024105877263 0.3159260802565473 173 140 192 0.44130068797012184 6 536 7 1147 17 1497 19 1239 20 744 18 1474
846 -0.15960933270465208 0.26768464887549986 0.32690138886260706 175 121 181 0.20238502135485267 13 1112 7 1136 15 1618
845 -0.3939328685783238 0.2839524571124202 0.41341721488213135 25 45 69 1.9052188322346175 2 206 7 1114 15 1654 17 1705 19 1670
844 -0.4035439734044147 0.2839787488459179 0.4085722327346145 16 17 51 0.8054360488342525 13 1143 7 1109 17 1709
843 -0.18617405821547311 0.145809389422296 0.6325659423099398 133 146 175 0.45758661906565684 6 754 7 1080 19 1139 18 1394
842 -0.18720340468207497 0.1414049201737914 0.6376997170028911 161 171 186 0.2579524105041298 6 752 7 1079 19 1135
841 0.023251955845527358 0.3973105457370313 0.32397524308430314 100 104 134 0.4695757256352338 6 687 7 1041 1 488 5 756 18 1242
840 -0.2566508448578531 0.3890490859720761 0.2622696530911949 88 45 26 0.737690936125221 13 1526 7 1015 15 1862
839 -0.2566508448578531 0.3890490859720761 0.2622696530911949 88 45 26 0.737690936125221 13 1527 7 1014 15 1863
838 -0.19595842603042576 0.32719082715416703 0.30580474532645685 108 55 38 0.27696839066136986 2 1021 7 954 19 619 20 740
837 -0.16373938496815083 0.31839364060162684 0.3125005875238673 168 139 187 0.49623372839922875 6 37 7 953 15 1442 20 265
836 -0.08040452602630621 0.2978343591853306 0.3632257058022089 132 119 164 0.8984455787544803 6 238 7 941 20 347 5 265 19 1474 16 1008 18 1768
835 -0.06609971480344475 0.2866775872889639 0.36384100766293437 108 124 161 0.6971852838164064 13 577 7 934 15 380
834 0.06917797253248303 0.24975627659641714 0.3720518930263508 64 86 112 0.5011060720371597 13 432 7 928 15 1320 17 799
833 -0.16873330365267777 0.30042924121665293 0.31432213954639476 181 136 192 0.8749387248209141 13 642 7 924 17 1510 19 547 15 1414 18 1496
832 -0.15912682295808292 0.2720999730850618 0.32180432669689946 154 93 160 0.4242612490598267 13 1120 7 889 15 1051 17 920
831 0.06733722085153775 0.2201306583432105 0.43175221966615446 115 141 168 1.2837151660985275 13 1018 7 886 18 173
829 -0.1490299585019685 0.25136938038413914 0.33136325111048015 166 108 170 0.12755403505363008 6 33 7 870 17 895
828 -0.45898365271213176 0.32704306842185504 0.4303249907365571 101 117 131 0.5256404184248705 2 906 7 849
827 0.0638978234045196 0.17307507197615868 0.46790536413059797 6 14 28 0.618860178887316 13 274 14 889 7 827 15 851 19 120
826 -0.1762566856986545 0.22300327268829115 0.417969911042478 130 155 195 1.0381304715143334 13 411 7 820 20 56
825 0.08723150649894412 0.15300669231398034 0.4660101766025719 30 57 98 0.608574742290169 6 364 7 813 15 823 17 727 19 81 20 396 5 795 16 714 21 894 22 1286 3 1374 8 1191 4 1246
824 -0.39440305822699967 0.2755797335520129 0.4093228486885371 114 141 164 1.2199177640180145 13 1135 7 809 2 195 15 1649 17 1324
823 -0.33593689811107164 0.17465028766218343 0.6370523680700918 8 16 28 0.7397818719253079 13 1006 7 767 15 948 17 1208 19 1410
822 -0.20016580189748037 0.46324530265692926 0.2874418406079629 188 188 223 0.6784042411771835 14 393 7 695 16 116
821 0.3338359266055031 0.28036793152002926 0.45119429755656687 24 14 13 1.3038808481914668 13 1081 14 401 7 614
820 -0.19687455562422917 0.3402689280359091 0.2903558422731781 120 89 71 0.9880412275539122 13 757 7 568 17 1013 19 1051 8 821
819 -0.13728597447270705 0.3305971946089249 0.32146615550317503 152 134 171 0.5402123871396279 14 722 7 565 15 1175
818 -0.1481802621196065 0.3330231430262871 0.3200785261894134 121 93 132 0.2672129057615401 6 100 7 564 15 1192
817 -0.13755514952720072 0.3287312920822725 0.3204262294143877 131 103 146 0.9002631934016166 13 703 14 720 7 557 5 182
816 -0.13595043248444316 0.3273517642979948 0.3230482908819627 158 136 177 0.5427171943350183 14 235 7 554 15 1163
815 -0.16316355613548184 0.33177487668110256 0.317340037803278 161 132 164 0.3455157948894524 13 720 7 551 15 1464 17 984
814 -0.2029314251349268 0.32903758878228395 0.30012336113819754 48 13 4 0.3701021161936846 14 169 7 510 15 703
813 -0.223362037512365 0.33253554459966517 0.2988297263442774 161 159 175 0.7394660897067619 14 144 7 505 15 1220 19 632 20 143 1 98 5 4 9 203 23 162 8 760
812 -0.172434719828711 0.32139514712575273 0.31672389874288903 155 115 158 0.3274814919564103 13 692 7 500 15 1167 17 974
811 -0.12649049619897743 0.3050951718518409 0.32580994756881054 45 49 76 0.22628504978802033 6 143 7 475 15 1112
810 -0.12106710820452748 0.3024086860466661 0.3298244395868287 133 143 166 0.4828887282334846 13 637 7 469 15 1101
809 -0.1511391449706737 0.30417712315114004 0.30766597550917546 155 137 180 0.413731185784072 13 653 7 449 15 1417 17 951
808 -0.17433180207595006 0.3105106868337997 0.31177874389163013 113 63 114 0.5316180542686958 13 1171 7 447 18 1507
807 -0.11704514372062867 0.2964539546047013 0.3307856731113648 39 46 73 0.7311634331425811 6 162 13 623 7 433 21 173
806 -0.175798879286431 0.30759719954774145 0.31208716915561296 114 81 130 0.3629862663461421 13 666 7 430 15 1133
805 -0.11002793494623782 0.28894352010327523 0.3394962640910706 36 44 73 0.4740595261220672 13 603 7 409 15 1072
804 -0.15245324282825648 0.29484296212150246 0.30843833577532603 170 140 188 0.3421204838216967 14 612 7 406 15 1102 17 943 19 532 18 1037
803 -0.10591987893988497 0.28660336205306103 0.3436764139230634 132 145 171 0.5485752119094351 6 189 7 396 15 1066
802 -0.10425673843848424 0.2848646285119345 0.34298330354470746 129 142 167 0.6737876615959562 13 584 7 389 15 1060 1 304 5 647 6 596 16 244 9 415 22 163 23 258 11 380
801 -0.10308052246113213 0.2831277247828191 0.3449334510138066 127 140 165 0.6910720036603453 2 474 7 382 15 1053 5 230 14 659 21 204 22 169
800 -0.2637738814584577 0.3185600743881944 0.3696085724448615 120 115 123 0.5677890985314384 13 678 7 366 15 1457
799 -0.2665265715666629 0.3189311353404141 0.3712074381239348 165 158 155 0.5845875427966257 13 677 7 365 15 1460 19 570 20 57
798 -0.14743870635916895 0.27726681839857625 0.3191793784045181 178 142 194 0.2873466298878304 13 580 7 357 15 1062
797 -0.14743870635916895 0.27726681839857625 0.3191793784045181 178 142 194 0.2873466298878304 13 579 7 356 15 1063
796 -0.13359987351185834 0.2692574400476468 0.3212579747475528 145 124 158 0.6652694265068191 6 89 7 347 15 1038
795 -0.0914664958468128 0.26136335341169703 0.35846890961698874 22 12 38 0.6295600284241895 13 509 7 340 15 1366
794 -0.19853054371867238 0.2665308478501355 0.37685009901573463 71 73 110 0.30530888599904193 13 540 7 274 15 1387 17 924
793 -0.1994699770514636 0.2642470669131202 0.37349095122803216 84 90 127 0.24514038642021077 13 533 7 265 15 1386
792 0.08941182605693677 0.17692970133270586 0.4408766942816952 6 20 49 0.8595950048121211 6 700 7 237 19 782
791 -0.1034187853862573 0.22231207372973313 0.3785598014592229 149 132 176 0.5010203747809467 14 555 7 233 19 297 20 213 1 262 5 627 16 615 21 711 22 841 9 1059 18 919
790 -0.15326872967309438 0.21880370290835535 0.41853845992203426 119 148 196 1.0956355036940308 6 61 13 398 7 197 17 869 1 160 21 132
789 -0.3967096975717083 0.28053105176826515 0.4144679450843823 76 101 120 1.0941582828642238 2 200 7 189 13 1138 15 1428 17 1327
788 -0.05516202529178446 0.18760518645930702 0.45831301612263925 72 31 34 1.898507704898942 14 7 7 169 16 644
787 -0.4438561185677766 0.27005913284888317 0.4204144704968004 160 189 228 0.6360657068509245 2 158 13 1132 7 123
786 -0.4438561185677766 0.27005913284888317 0.4204144704968004 160 189 228 0.6360657068509245 2 157 13 1131 7 122
785 -0.1615243162447639 0.13713824318264142 0.6012013367786387 116 140 163 0.47324460051520834 6 86 7 48 17 791 16 767
784 -0.3329521525199119 0.16980381570907555 0.6408050893308292 16 22 31 0.4296237711202329 13 343 7 34 15 223
783 -0.03761002378739634 0.28903644317391897 0.3017135508117759 101 118 163 0.6657293037478913 13 2741 6 1790
782 -0.0028866849348657764 0.35618033417194983 0.3553960355979046 72 89 124 0.5145885482171958 13 2676 6 1660
781 -0.13483510917184835 0.3637838663673278 0.35199373912055415 98 75 78 1.1142784737566875 13 1232 6 179 15 727
780 -0.16223049168004292 0.348545574248857 0.3226051425557854 103 64 41 0.24172131251292295 13 1222 6 80 15 1217
779 -0.162218421908797 0.33657276639782135 0.32058545116297105 87 49 58 0.4910128728108896 13 731 6 72 15 1203
778 -0.16307416669568925 0.3348673337404166 0.3189295289374808 148 115 124 0.30219245700420394 13 726 6 65 15 1200
777 -0.16307416669568925 0.3348673337404166 0.3189295289374808 148 115 124 0.30219245700420394 13 725 6 64 15 1201
776 0.08170101248895212 0.2972486773864815 0.30795829558901655 123 170 197 0.08925205303143491 2 2617 6 1806
775 -0.004251604875448166 0.3532537804885612 0.34750856810775327 64 82 118 2.175571078139321 14 1899 6 1805 7 2266
774 -0.0057624078633041875 0.357488575084962 0.3706486171499141 64 82 118 1.4284796348885758 14 1898 6 1804 20 2218
773 0.13520881051773315 0.2578029532847071 0.4005355873316321 10 11 7 1.7362887888485605 2 2616 6 1791 7 2259
772 0.07294769981430302 0.2667790952759458 0.34284926567547586 146 169 188 0.18106411237143452 13 2714 6 1774
771 0.16494862833913806 0.43071722067973456 0.2980450862533559 175 130 51 1.4941987220446789 14 1873 6 1765 20 2187 1 2161 16 1944 21 2133
770 0.10671037364133118 0.2240944354815408 0.38337865298040014 94 114 136 1.1453268054546413 13 2663 6 1729 7 2205 19 2434
769 0.0348346848965834 0.34608883351576913 0.3114757450761203 142 164 174 1.2900905641738367 2 2553 6 1726
768 -0.16815933066173228 0.36191569999012774 0.357806565567936 64 28 5 0.9218224978969602 2 2512 6 1712
767 -0.1943169556512941 0.4537440657596244 0.2995061526894587 132 16 11 0.8918113193928723 14 1851 6 1710 2 2552 7 2237
766 0.1993264315840494 0.4124027877130267 0.3143708196788816 165 158 137 0.7786328632558607 13 2640 14 1801 6 1610 7 2111 17 2322 19 2392 20 2089 16 1824 21 1987 22 2253 9 2360 10 1971 11 2045
764 -0.09690726158951488 0.38725204506679056 0.36117275569973717 82 56 31 1.0124938877633847 13 2635 6 1567 7 2083
763 -0.12567934899086286 0.4356716650186699 0.3201062589126311 168 163 145 1.0101352858054737 2 2451 14 1789 6 1562 7 2096 17 2405 19 2406 20 1932 1 1880 5 1781 16 1758 21 1820 22 2101 9 2311 8 2090 4 1847
762 0.18824779700727137 0.25585016564988605 0.4873669690890914 125 94 26 0.4256200088764621 2 2343 6 1514 20 1958
761 0.18836746607837845 0.25587008856487986 0.487816857661254 125 94 26 0.39703552493165023 2 2342 6 1513 20 1957 20 2061
760 0.20200118685468496 0.06272033367347736 0.6948267578528768 144 147 126 0.6642002085298953 2 2204 6 1511 7 1961
759 0.13898956606711732 0.16008970584173593 0.4343288430144316 19 15 17 0.7556150406832283 2 2315 6 1510 20 1941 1 1925 5 1820
758 0.13898956606711732 0.16008970584173593 0.4343288430144316 19 15 17 0.7556150406832283 2 2314 6 1509 20 1940 1 1924 5 1819
757 0.05600777883931692 0.22174741105066456 0.42049184994877803 16 22 24 1.5897695834136414 13 2469 6 1499 7 2063 15 2418
756 -0.054454097058403345 0.24393249730711536 0.4419603582265539 122 141 175 1.487637426907288 2 1909 13 2477 6 1482 15 2366 7 1974
755 -0.1406214255386266 0.21029346927264406 0.3967082933584539 0 71 145 1.463963010516052 13 2374 6 1457 15 2357
754 0.3296135302359383 0.21470621405825033 0.5127511085036246 142 142 116 0.7540181566546827 2 2253 6 1446 20 1997
752 0.2870622474117256 0.15230552454918087 0.5909742571846249 150 149 120 0.7606418591323666 13 2213 6 1429 7 1878 19 2092 20 1955
751 0.150426046456096 0.1662367915843406 0.42744543685431957 121 149 182 1.5671260906237745 2 2319 6 1415 19 2239
750 0.19872360468869374 0.07929073611669574 0.6779182725004353 159 123 48 0.7990830907083041 2 2069 13 2197 6 1414 7 1861
749 0.02163634950616431 0.38973258381080067 0.3275630585891447 137 166 193 1.6803729249489663 7 2024 15 2386 17 2230 19 2185 20 1824
748 0.0057208175370765686 0.12307831282932513 0.6478168591408 149 152 131 1.1424064010873827 2 2197 6 1388 19 2101 20 1877 1 1891 16 1770 21 1966
747 -0.10753187976699473 0.24930726953961796 0.34424066606535736 36 39 67 0.6322688518745663 13 2386 6 1373 19 1994 20 1621 5 1575
746 -0.11175571052430776 0.25864853729532045 0.3442391968594611 116 126 142 1.0723744966113162 2 2210 6 1372 19 2162 20 1725 1 1560 5 1687 16 1480 18 2190 10 1820
745 -0.18349528737371906 0.45663465667437536 0.294995700949974 168 18 25 0.30802040204375997 14 1675 6 1363 7 2031
744 -0.18303264978430003 0.4561314077377442 0.2938641349406485 168 18 25 0.43558792335281493 14 1674 6 1362 7 2032 21 1564 22 1837
743 0.30229615205703575 0.15471122662645717 0.5864438320270519 162 126 44 0.6356997342368609 2 2117 6 1342 7 1749 20 1831
741 0.28843450615165495 0.14153736341057258 0.6029766018885898 162 126 45 0.25344926995294814 13 2210 6 1336 7 1744 20 1825
740 0.1409071215192324 0.29022535920080256 0.2863851465397147 97 93 121 0.6414502475403061 2 2143 6 1324 20 1694 1 1646 5 1644
739 0.2056708126586744 0.09435971455524143 0.6578604370461496 157 123 48 0.5405821506444062 2 2074 6 1309 7 1721
738 0.05741228359987273 0.4548024592946931 0.2793150329253274 176 136 66 1.0046763907638658 14 1687 6 1306 7 1951 17 2250 15 2401 19 2200 20 1697 1 1635 5 1633 21 1631 22 1870
737 0.1764753983829594 0.05851010618635338 0.7031349130234581 147 147 128 0.6136040850930865 2 2063 6 1304 7 1703
736 0.058431050399807546 0.26293387233828214 0.37538420730851946 22 28 41 0.789976636478987 13 2262 14 1575 6 1298
735 0.03646180315483436 0.09188792228847158 0.6792221999962199 156 158 135 0.7505234913166625 13 2056 6 1284 15 2043 20 1721
734 0.03586092138452972 0.09158133509846998 0.6792642511457597 156 158 135 1.0115025976529444 13 2055 6 1283 7 1701 15 2042 17 1913 19 1908 20 1720 1 1897 16 1775 18 2006
733 -0.020466083145361105 0.28746232777315817 0.31467750991679955 75 87 132 0.6445145459568827 2 1949 6 1278 20 1534
732 -0.11056390234566162 0.2124369166459824 0.39005918151170327 120 121 164 0.8538073613652827 13 2244 6 1246 7 1870
731 -0.1923319020623038 0.06359951712908622 0.7371367246421404 164 167 151 1.5016251040582005 13 2054 6 1234 17 1941 18 2149
730 0.213273260815765 0.09983863357485824 0.6564659450359511 149 149 116 0.46607405779804384 2 1905 6 1209
729 0.213273260815765 0.09983863357485824 0.6564659450359511 149 149 116 0.46607405779804384 2 1904 6 1208
728 0.209672017699187 0.08256115081148721 0.678566143595753 148 149 120 0.4899558500272696 2 1894 13 2039 6 1204
726 0.04214356909625491 0.287487806292108 0.3388949520229428 63 78 104 0.5271903435828137 13 1931 6 1196 20 1548
725 0.09608392207597095 0.08927445864468483 0.6733304689825845 154 155 128 0.49952885871801206 2 1882 6 1193 7 1570 15 1879
724 0.09615382410444877 0.08927997698516917 0.6741268730700103 154 155 128 0.6782127520601684 13 1854 6 1192 7 1569 15 1878
723 0.08281419329919291 0.09573256902137428 0.6727358718803589 162 133 69 1.1262650652208144 2 1885 13 1857 6 1184 15 1882
722 0.0829366984005058 0.0955539334085274 0.6728818994355285 162 133 69 0.9107781962722657 2 1884 13 1856 6 1183 15 1881 19 1727 18 1854
721 -0.02191581128657475 0.1950472144834704 0.4253193694359858 38 57 77 1.3057659437437468 13 1881 6 1163 7 1458 19 1414 1 1450 5 1481 21 1599 22 1917 9 1972 23 1983 10 1846
720 -0.09045065069201838 0.25043161728406366 0.35109749363375703 42 48 71 0.7835287873626781 2 1900 6 1135 17 1826 19 1639 20 1501 18 1758
719 -0.09644990796126067 0.058896751235120746 0.5569234609204938 112 150 132 0.19504762636678316 2 1853 13 1840 6 1133
718 -0.19970544831043996 0.46075345306253757 0.28989979667730975 160 26 52 0.5494832172494286 14 1511 6 1121 7 1683 7 1843
717 -0.20000702088991293 0.4611663248332836 0.29057114273023393 160 26 52 0.4460614980082216 2 1992 14 1510 6 1120 7 1684
716 -0.2017322153395421 0.4395843913845053 0.30397524476704285 105 80 59 0.8346365654105554 2 1983 14 1609 6 1116
715 -0.21328519592515358 0.46952769566664 0.2857510774395389 95 68 66 0.657854972133797 14 1514 6 1111 2 1794 7 1845 20 1367 1 1105 5 1197 21 950
714 -0.21814073573138376 0.4669582338288903 0.2935540992151156 174 165 134 0.9506196555722581 14 1509 6 1110 7 1841 20 1366
713 0.04364689089364759 0.4739932543459997 0.25497785662633393 160 31 69 0.7547695654794908 14 1525 6 1090 5 1261 1 1027 21 1051 9 1315 23 995 3 1070 8 1434 4 1048 12 1006 10 820
712 0.04402859983568654 0.47427499247874955 0.25469863447911867 160 31 69 1.2436665338760797 14 1524 6 1089 19 1860 17 2050 20 1571 5 1262 1 1028 16 1186 16 1317 21 1052 9 1314 23 994 3 1069 8 1433 17 1892 4 1047 12 1005 10 821
711 -0.01441042300197522 0.29525200749652875 0.3118208511005373 86 102 141 0.6868061328391151 13 2110 6 1067 15 2222
710 -0.007330158790801725 0.2142498872690766 0.4259613361079979 86 106 138 0.7364228587234166 13 1890 6 1063 7 1609 15 1749 17 1625 19 1172 20 1222 1 1159 5 1355 18 1370
709 -0.027964553347192136 0.1758641167968689 0.42086734587755453 56 78 108 0.737867032067151 13 1356 6 1055 20 1204 1 1146 5 1228 16 1018 21 1342 22 1778 9 1811 23 1716 11 1868
708 -0.0786837019139146 0.2627880024501409 0.35726665015170767 38 45 77 0.3085875565647325 2 1730 13 1694 6 1039
707 -0.1524105572062767 0.2824193304847393 0.31214412925446516 153 124 170 0.6901291804991012 14 1334 6 1012 20 1336 1 1089 5 1176 16 1109 21 1132 22 1542 9 1540
706 -0.16549301388419432 0.21938157809520975 0.4175224469386393 5 73 143 0.6623409031386772 13 1901 6 1011 15 1941 17 1824 20 1300 18 1761
705 0.054378875819511806 0.17361770726981085 0.47142815567629187 152 113 73 0.20630300258895418 14 1208 6 955 5 1249
704 -0.029658560826746408 0.16512021214301176 0.44591793243989836 19 21 33 1.3842912902787035 2 1685 13 1351 6 933
703 -0.10091128504560418 0.247289831833512 0.3468888762511356 44 51 75 0.6266513030120111 14 1205 6 912 7 1330
702 -0.16498235108247167 0.12954593813663323 0.6064708325909577 101 127 145 0.2202816072954253 13 1630 6 894 7 1252 19 1389 18 1380
701 -0.13952146310222593 0.25895077666754507 0.32423410277334136 144 90 150 0.833501866926529 14 1199 6 891 15 1789
700 0.0606744991529892 0.27823226776856946 0.3034346597994161 170 165 199 0.8312696725854899 2 1553 6 842 7 1378 15 1775 17 1451 18 1379
699 0.035038060801126314 0.3921791121000871 0.3255849962412513 123 146 164 0.6563139751516449 2 1368 6 839 20 1117
698 0.06086080783040042 0.20197979042836664 0.48364862609311793 94 105 125 0.7445977900968801 13 1375 6 832 7 1316 17 1769
696 -0.08825867769723722 0.33160492568206074 0.3339980365868625 122 140 168 0.8393038840181313 13 1482 6 793 15 1144 7 578
695 -0.1466144497383323 0.33571627082499045 0.32229130161038794 131 110 139 0.6361313284385599 13 1748 6 771 7 1375 15 1994
694 -0.14929787397515476 0.32851078930582867 0.31568782953102276 142 120 152 0.6433819183341773 2 1309 6 768 20 784
693 -0.18729633422418257 0.14106682642858764 0.6391619622605903 146 168 189 1.0181357553800978 2 892 6 751 7 1078 19 1134 18 1733
692 0.2599646053452912 0.06457318505477025 0.6737817403819056 157 144 124 0.7035152678463634 13 172 6 737
691 0.044366942802235625 0.47143761749911145 0.2581186168563923 201 185 210 0.863489669382633 14 1305 6 712 17 1551 19 1327 20 1136 1 857 5 799 16 717 21 843 22 763 9 971 23 702 18 1490 3 749 8 983 4 609 10 823
690 0.08870152003737357 0.15420106190183758 0.46380545605402473 125 158 194 0.7595006368315992 2 353 6 695 17 1081 15 1267 19 756 20 844 1 830 5 1134 16 915 16 1056 21 1080 22 1502 18 1110 3 1525 8 1395 8 1563 4 1366
689 0.06207222040594382 0.24841032676422412 0.3790679819637492 8 9 17 0.6915559480450368 14 969 6 693 7 397 19 277 5 776 18 231
688 0.05872661142704296 0.25217412074535095 0.3763517302552481 98 115 134 0.6913768407560287 2 1056 13 1072 6 692 7 1163 15 1328
687 0.0640276035206346 0.17891685641200425 0.4680489962844542 104 127 153 0.5248454051415975 14 897 6 682 7 833 15 857 20 840 16 379 18 114
686 0.06425243480272515 0.16360618417089756 0.47039218079411427 11 13 21 0.22797422160551628 14 585 6 680 20 829
685 0.03690937605741145 0.23328526629305868 0.46485810979721215 105 41 48 0.3933652645295537 13 401 14 206 6 675
684 -0.06290814203109148 0.3765263537618608 0.32254179710925557 98 76 73 1.3371886245951945 13 1239 14 1411 6 644 20 437
683 -0.04862194751286099 0.23851055106592323 0.43871175128602674 132 154 180 0.5322489922726412 13 1411 6 635 7 1326 15 1581 20 791
682 -0.08614289565358121 0.339660230911926 0.3319100663432971 44 26 40 0.7293032737345092 13 1487 6 622 20 835
681 -0.07556809110955921 0.2869099027625907 0.3607965019228059 65 63 102 0.7929650516193538 13 1127 6 620 7 418
680 -0.12316223531027237 0.22465876745517116 0.3725184347458251 150 119 165 0.8252958689522969 13 1036 6 564 5 877 1 205
679 -0.15995080370542478 0.13448596990398742 0.6064285690272921 101 131 151 0.5691696243778006 13 262 6 554 7 45 19 93 16 768 18 853
678 -0.16415601836157565 0.34852828439596834 0.3219700164728171 66 24 9 0.3171913691202709 13 1224 14 1120 6 546 15 1681 17 999
677 -0.1679249011751309 0.34335917965804524 0.324673441761415 40 4 0 0.7021710326981412 2 1047 6 542 7 992 19 1030
676 -0.15124054984396354 0.2969824759596139 0.3070390506449592 146 129 171 0.8321747722207078 14 1083 6 539 19 1246 20 765
675 -0.2024054788337847 0.47257137656626336 0.27863813914116964 133 151 181 0.5708529177788901 14 1020 6 535 7 1243 16 577
674 -0.2024054788337847 0.47257137656626336 0.27863813914116964 133 151 181 0.5708529177788901 14 1019 6 534 7 1242 16 576
673 0.13217826866708568 0.15912694311837178 0.4375443913996143 134 101 74 0.6335080272676422 13 237 6 413 15 10
672 0.08147153292921813 0.24549953820630085 0.3704061028832035 86 103 119 0.41599225140794954 2 572 6 393 15 898
671 0.08094601384917731 0.24362851918863399 0.37290969780212957 0 3 21 0.6188861849236484 13 415 6 391 7 403 17 786 19 254 20 474 5 806 18 805
670 0.09875172625351147 0.1763984507499209 0.4382522554099691 105 131 158 0.9219474557180954 14 108 6 389 19 779
669 0.06827745777471818 0.24516925492191308 0.3763734660691958 109 126 143 0.9903592373045506 13 1052 6 376 19 262 20 456 1 496 5 779 16 412
668 0.035437551968478316 0.3935309127590859 0.32573230728326624 126 153 175 0.6693051022541634 13 1245 6 375 15 1489 17 956
667 0.033707536931959756 0.3961628727638487 0.321314493798197 86 112 141 0.5783094585256269 2 722 6 371 19 1029 20 549 1 508 5 770 16 384 18 1232 8 959
666 0.04990202456326962 0.2575378401106307 0.3799369512969468 6 6 13 0.5574607072901929 2 565 6 339 7 929 13 470 15 940
665 0.059991711214936676 0.21498642791100478 0.42607678006842226 24 24 35 1.1159003324609085 13 356 6 337 7 1133
664 0.057547802646335106 0.14990780007584187 0.503228442751851 146 154 137 1.8486506714899527 13 243 6 314 7 153
663 0.028930046604230146 0.24812260613259327 0.43367426622232164 121 46 50 0.20521536000585425 14 710 6 307 7 362
662 0.02703410244643695 0.22180948337965714 0.44887181437585216 71 90 109 0.4511278328394129 13 385 6 305 1 431 16 340 22 963
661 -0.04833170447184707 0.36271812082358035 0.3294961195606949 42 22 32 0.6611262668043866 13 1231 14 1162 6 276
660 -0.057525275843821645 0.24023079985886084 0.45366702473829235 135 146 175 0.3042244659122055 13 428 14 117 6 257
659 -0.12799249325835207 0.5321966422025478 0.20901090992028068 32 38 64 0.04324252640538638 2 779 6 234
658 -0.09864830093540738 0.25883073640791376 0.35624261001017876 55 39 62 0.34235861185427763 14 894 6 190 7 888
657 -0.09732785434881511 0.2412529933703083 0.3494924805838853 24 19 58 0.6905058295406786 14 865 6 178 19 366 1 282 5 203 21 187 9 455 22 210 23 1057 8 233
656 -0.10206446038428361 0.22367414860842189 0.37761578852697186 107 89 133 0.8811258236963662 14 557 6 166 19 300
655 -0.11012329383634335 0.2647253202485476 0.34184403621846626 104 119 134 0.4198854780394044 13 526 6 158 5 196 16 221
654 -0.12226430409697353 0.30389026965231414 0.3249070664637919 129 139 155 0.42712774407905 13 641 6 151 5 197
653 -0.1326903260741537 0.3251707904021206 0.32426439914332916 130 109 145 0.5936612744989097 13 1184 6 142 7 981 19 984
652 -0.1326903260741537 0.3251707904021206 0.32426439914332916 130 109 145 0.5936612744989097 13 1185 6 141 7 982 19 985
651 -0.13583891766486925 0.3136811950461091 0.32279559862321633 138 145 167 0.5033451736095926 14 700 6 123 15 1126
650 -0.13690869755720644 0.31276400539181753 0.322783062178994 44 48 71 0.4358078874804483 13 667 6 114 15 521
649 -0.13290114132412392 0.2903945595625426 0.3210590483852846 119 131 148 0.795239978085687 2 1008 6 107 15 1398 17 927 20 272 19 501 1 225
648 -0.12896429426301045 0.24053900588507687 0.3419541191021381 140 108 159 0.8307360995995575 13 454 6 91 1 181 5 586
647 -0.12896429426301045 0.24053900588507687 0.3419541191021381 140 108 159 0.8307360995995575 13 455 6 90 1 182 5 587
645 -0.13637944125466916 0.26308663710132174 0.3212651860779684 167 130 180 0.668732374936999 14 571 6 77 19 466
644 -0.18172346977246587 0.14077619432764524 0.6396792818081642 143 164 186 1.0334588124963195 2 193 6 67 7 54 19 1133 18 870
643 -0.15021356176619896 0.28051355664049815 0.3151409473983059 116 86 128 0.45429393395000295 14 588 6 43 7 369 15 409 5 77 16 112 9 312
642 -0.20253111314748817 0.45803288049769403 0.29197873335236096 146 39 63 1.5361104983861023 2 692 14 389 6 41
641 -0.15443371765291022 0.2857320529787094 0.31065302568238373 157 124 171 0.7195894400762736 2 392 6 29 5 69
640 -0.1647095159815766 0.31028004969164685 0.31304308386005236 127 96 147 0.4734149051673422 14 652 6 25 20 255
639 -0.1656884804564957 0.31437681280388363 0.3120339128155664 136 109 159 0.48943856678104597 14 672 6 23 7 480 15 1146
638 -0.2109782348002463 0.4682027027231713 0.2863635883153592 99 87 108 0.703649986905627 14 394 6 20 7 1050 16 558
637 -0.16418281746957636 0.3022697948398732 0.31072877456776676 130 96 151 0.5881284081716058 13 1159 6 17 7 931 15 1418 17 955
636 -0.1637960124747958 0.302040510185081 0.3091913362680679 130 96 151 0.5732401736274428 13 1160 6 16 15 1419
634 0.07958737815813212 0.19426246965134442 0.4383727269885729 125 138 164 2.194047930499102 2 1924 14 1547 6 1300
633 -0.19384318139866955 0.4350619288876578 0.300545094004829 93 75 57 0.457293252310646 2 2352 14 1781 6 1456 7 1941
632 -0.1775323108891371 0.4498717558547146 0.30212963733273657 176 181 201 1.0870707133060211 2 2141 14 1673 6 1367 7 2029 20 1765 5 1452
631 0.07635403390115392 0.2856240624987824 0.30627458512147904 164 161 191 1.1584154322595457 13 2738 14 1894 7 2260
630 0.07635403390115392 0.2856240624987824 0.30627458512147904 164 161 191 1.1584154322595457 13 2739 14 1893 7 2261
628 0.05034669269854667 0.4171974825411275 0.293745784441063 162 160 169 2.200654494941314 2 2558 14 1871 6 1727 20 2161
627 0.07632956703599095 0.3967306948451619 0.2983104391457852 75 42 0 1.8873783470745795 13 2681 14 1870 20 2163
626 0.01317502375281675 0.3660980292416544 0.315184688222193 47 39 15 1.4970676783674284 13 2719 14 1867 6 1751 7 2220
624 0.07138297079536499 0.21410944673495375 0.39376189341893403 120 134 156 1.3692076465886946 13 2698 14 1837 7 2233 19 2509
623 -0.09277114764457131 0.5025619778131135 0.23483845274170545 21 24 25 1.3602936506043524 2 2388 14 1834 6 1654
622 0.1865497770279866 0.3942348556540421 0.33554287471972205 144 139 98 1.0343615990782853 13 2637 14 1833 6 1609 7 2178 17 2317 19 2387 20 2135 1 2058 16 1821 21 2070 22 2340 10 2004 11 2154
621 -0.11809815295350524 0.37392584322444844 0.35383068069010004 166 139 170 0.6234248199296794 2 2521 14 1820 6 1644
620 0.2885000572130194 0.17170477773200765 0.573614916384334 173 128 33 1.328591595870185 13 2614 14 1815 7 2202 15 2454 19 2478
619 0.07524189459681994 0.1674145141454012 0.4562196537898361 142 163 187 2.256520543011559 2 2418 14 1809 20 2150
618 0.21429851733918764 0.41625278997792725 0.3117848326446079 166 120 23 0.9420332802440657 13 2595 14 1803 7 2115 6 1529 17 2218 16 1715
617 0.1990678567820084 0.4122524151248765 0.3133078171360762 147 137 96 0.558202523591916 13 2641 14 1802 19 2391
616 0.047621984521525655 0.45004163557770543 0.28557254481303 168 148 112 1.4892068763722728 2 2390 14 1798 6 1505 7 2114 15 2495 20 1982
615 -0.0019580390934107027 0.456091893447963 0.2864426647542596 158 141 112 0.9322614315121681 2 2467 14 1796 7 2112 6 1498 17 2400 19 2412 1 1905 20 1960 5 1800 16 1610 21 1845 22 2121 8 2006 4 1798
614 0.011291570625081133 0.4290195149546927 0.3166383229628582 164 114 20 1.9307590159404053 13 2599 14 1795 15 2442 17 2245
613 -0.013782235702897905 0.42676186968596314 0.31638961426982176 156 108 23 0.6543558304418086 13 2647 14 1793 15 2492
612 -0.05094513311640395 0.419948522232921 0.3187396937244262 165 150 122 0.037330504174943574 13 2645 15 2491
611 -0.14754186999499427 0.4352232186108602 0.32189295692505376 159 143 113 0.791369495213812 2 2362 14 1787 6 1470 7 2095 17 2407 19 2410 20 1927 1 1728 5 1696 16 1575 21 1694
610 -0.04199925838116415 0.39145795064729 0.35280471447014633 97 56 7 1.3207132117441467 2 2449 13 2588 14 1786 6 1491
609 -0.16244792007193393 0.43411427544880865 0.3258181192193882 106 67 16 1.0937201639643552 2 2446 14 1785 7 2173 19 2411 20 2044 1 1873 5 1773 16 1752 21 1811 22 2098 9 2308
608 0.01853986211797277 0.3378225543995294 0.3213288325905043 23 22 31 0.6129777282736224 2 2355 13 2577 14 1780 6 1496
607 0.3117649518485331 0.19936942055740292 0.5355273880631708 151 145 116 1.053538370924176 2 2524 13 2619 14 1774 6 1698
606 0.26178521631639157 0.12622552023251235 0.6350388056103202 167 122 17 0.5401449290001089 13 2535 14 1764 6 1606
605 0.3661017543607506 0.07561277539892568 0.6850346313590487 136 130 100 1.4457321942718302 13 2457 14 1763 7 2054
604 0.1075676122529399 0.1905827865202451 0.42810574210562646 130 148 175 1.40351220918691 13 2546 14 1759 20 2053 5 1903
603 0.054882655078790275 0.19106385466034015 0.48436416306729746 13 14 10 1.4209604587852642 13 2548 14 1755 6 1582 2 2312 7 2134 15 2461 17 2369 19 2360 18 2320
602 0.058714959946995784 0.16011983646538427 0.4801930724024263 12 16 18 1.6903220031034067 13 2539 14 1753 6 1581 7 2129 15 2413 17 2367 19 2349 20 2041 5 1867 1 2033
601 0.2019991552444286 0.4024295161826701 0.3277527067202864 159 114 19 1.606947923741279 13 2591 14 1747 19 2274 17 2319 22 2260
599 0.01043063015177145 0.45171444457149235 0.2879379896543549 159 113 27 1.3182955677661803 2 2383 14 1744 17 2258 19 2323
598 -0.1054535450896266 0.44497313144042605 0.3054274149474636 170 154 122 1.2461394631289042 2 2373 14 1736 6 1478 7 2101 17 2357 19 2415 20 1938 1 1740 5 1702 16 1762 21 1821 22 2100 9 2310 8 2092 4 1844
597 0.25878630518236373 0.27861278936997136 0.4620206638089821 153 113 28 1.5081286901725415 2 2369 13 2557 14 1729
596 0.13396462373234877 0.2875592663361575 0.2864484089476744 150 146 169 0.8402284286413163 13 2486 14 1728 6 1418 2 2363 20 1973 1 1815 5 1822
595 0.320740258197397 0.2131405206348433 0.5241529091670123 164 120 32 1.2585331502294248 2 2441 14 1725 7 1990 15 2345
594 0.2966531458210849 0.21720942232371368 0.5198700657291543 158 116 27 1.4353545495385034 13 2468 14 1724 6 1523 7 2068 15 2269
593 0.10037773947209157 0.2750807501628634 0.29207153578827033 145 157 163 0.7819006264038496 13 2564 14 1721
592 -0.16611252374733293 0.37295077777419483 0.34370235037859437 104 64 20 1.2945735287903406 2 2336 6 1459 13 2585
591 0.03365257764335631 0.28824308048231556 0.3396464503060118 72 80 106 0.6405213994176949 13 2568 14 1715 6 1497 20 2056
590 0.021340015016243226 0.23256487583853158 0.44411073153691166 110 109 134 1.083129700427374 2 2325 13 2378 14 1709
589 0.039525274485087816 0.42641172611089834 0.2994687761310684 181 128 31 1.7526841869902021 2 2002 13 2516 14 1685 6 1404
588 0.2575909238440739 0.34357893134474865 0.3840023279256128 149 108 21 0.7237108156607863 13 2409 14 1684 6 1444 7 1942 17 1977 19 1993 20 1853 22 2187 9 2273 23 2078 3 1750 8 1913 4 1604 12 1894 11 2124
587 -0.09102819248887566 0.4474352359381447 0.3048061813891952 178 127 35 0.8461552094687752 2 2270 14 1682 7 2037 6 1383 17 2266 19 2204 20 1668 1 1599 5 1605
586 0.3016498278095963 0.29748907905519667 0.4295551383148856 146 142 115 1.2756230949633791 13 2396 14 1680 6 1451 7 1929 17 1957 19 2144 22 2303
585 0.31434446261464943 0.2926910589278479 0.4395903222346156 155 116 24 0.7036836268109308 13 2392 14 1679 19 1969 2 2376 20 2006
584 -0.12394395826677884 0.44518341015037854 0.3087668533266305 178 127 32 0.4053802598849465 2 2268 14 1678 17 2269 19 2208
583 -0.12394395826677884 0.44518341015037854 0.3087668533266305 178 127 32 0.4053802598849465 2 2267 14 1677 17 2268 19 2207
582 -0.11031939564137731 0.43557669744291705 0.3181282542952063 180 132 45 0.7574080982084326 2 2263 14 1676 6 1381 7 2027 15 2400 17 2263 19 2321 20 1780 1 1589 5 1596 16 1486 21 1710 22 1985 9 2049 3 1891 8 1996 4 1750
581 0.25334440755970666 0.2487837754338438 0.48739301972942667 146 105 16 1.1627047125636771 13 2379 14 1666 6 1430 7 1907 15 2282 17 2078 19 2131 20 1983 16 1828
580 -0.00010583268259986811 0.3355116970237879 0.2945951560037149 79 89 115 0.5292750097058478 2 2248 14 1665 6 1287
579 -0.06002613634605006 0.35846401822546936 0.33042686468161137 41 44 65 1.003472749579197 13 2500 14 1664 6 1385
578 0.06193550492102033 0.2732904332211806 0.30065593379841565 142 111 139 1.1636983922832334 2 2124 13 2394 14 1652 6 1302 7 1917 15 2364
577 -0.11256368325290331 0.32707832030935463 0.3392554322475003 142 125 137 0.9814509941700446 2 2111 13 2413 14 1649 6 1376
576 -0.1500321517085583 0.31947698875580827 0.311261724820333 161 120 158 1.6820824559147785 2 2102 14 1643 20 1625
575 0.1338833834738076 0.19205785997578945 0.42454889237720034 116 131 157 0.8135077486423006 13 2351 14 1641 19 1948
574 -0.13824651749255823 0.30194072714895887 0.31981204340571506 142 140 147 1.6986743516707747 2 2095 14 1634 6 1364 19 2020 20 1729 1 1556 5 1570 18 2093
573 -0.051889219698009866 0.4555475025743319 0.29305019742318267 158 142 110 0.9259884031360691 2 2000 14 1618 6 1280 7 1848 17 2152 19 2209
572 0.14985191598951564 0.2902971493657157 0.28931258059630893 111 100 117 0.5912447057246653 13 2271 14 1610 7 1668
571 -0.09991880715783044 0.39763824561591243 0.3563621608534663 179 130 41 1.0795935201715925 13 2308 14 1608 6 1265 7 1827 15 2326 17 2143 19 1839
570 0.2354496198962696 0.26555244462555533 0.47075669238009105 143 105 21 0.7334289071187483 2 2257 14 1607 6 1425 7 1912 17 2082 19 2136 20 1841 23 2161 22 2305 18 2016
569 0.235838155649024 0.26580554503187803 0.47142366833769306 143 105 21 0.7374654502427763 2 2256 14 1606 6 1426 7 1913 13 2383 20 1842 16 1695
568 0.33584575720347654 0.2238267374623166 0.5068574757088136 157 121 28 1.0266124281678277 2 2258 13 2368 14 1605 6 1448 19 1944 20 1849
567 -0.04492706647528455 0.3543394232726649 0.3141937494985667 91 86 96 1.251401956751905 13 2300 14 1604 6 1168
565 0.18815814429072802 0.24546581096073913 0.4965622389742354 55 42 8 0.715764654399922 13 2380 14 1588 6 1419
564 -0.056093507997054 0.33347575207521973 0.31067046323586783 98 101 129 0.6487992562177239 2 1778 13 2295 14 1585 6 1159
563 -0.10989014396338444 0.3567184525057139 0.3691738385755682 108 87 74 0.8295455856990354 13 2299 14 1583 6 1140
562 0.32229912947812345 0.16312229673626774 0.5792341586069365 167 128 41 0.8554122033559416 2 2122 13 2219 14 1579 6 1347 7 1760 19 1926
560 -0.020088139194411894 0.28725136357766834 0.31751347343466857 82 91 126 0.5986173736812135 13 2272 14 1571 7 1801
559 -0.14073492861649062 0.33408675960214634 0.32089213038079617 154 122 148 1.041731500391831 13 2296 14 1568 6 1244 7 1651
558 -0.14194253034831708 0.33492830619994746 0.32359115963637614 154 122 148 0.16681633078068347 2 1943 14 1567 6 1243
557 -0.17664623433816748 0.3251225367634204 0.3204526466664403 60 20 37 1.819743282664515 2 1745 13 2415 14 1557 7 1905 15 2315 19 2027 1 1406 16 1230
556 -0.07222105395402234 0.2591028306471339 0.4356007636457313 105 102 116 1.0783226023092982 13 2263 14 1549 6 1150
554 -0.08461206041945549 0.2620533440306422 0.3562679017556038 114 117 145 0.5103707364230597 13 2266 14 1541 6 1256 2 1914 7 1773 17 1996
553 -0.09021417513504898 0.2587603087938822 0.355770823218807 16 13 32 0.8135373297488999 2 1907 13 2264 14 1539 6 1254 15 2212 17 1831 20 1502 1 1289 5 1458
552 -0.1489451159760935 0.2851789896926865 0.3145660489634616 146 104 123 1.2574837414629434 13 2278 14 1536 6 1235 15 2224 19 1661 20 1488 16 1242
551 -0.0815505207479715 0.2107300921462037 0.4538065462763928 130 29 58 0.6150071192535084 13 2241 14 1534 19 1756 18 1907
550 0.05891257735329775 0.40724867246206237 0.27399226432130125 144 139 152 0.9118812761411532 13 2150 14 1520 6 1091
549 0.31961397962868066 0.3031357145411361 0.4374568547820038 149 115 38 2.0937676698417973 2 2279 14 1518 6 1349 19 1759
548 0.24626684703852694 0.25671653360094165 0.4811824279579667 139 130 94 0.2268707221907423 2 2140 13 2253 14 1503 20 1696
547 0.24653011473107722 0.2567365625143628 0.4826092876733894 139 130 94 0.5012204745619334 2 2139 13 2254 14 1502 6 1337 7 1802 15 2070
546 -0.06126206518250734 0.36608131485895523 0.32564818950638463 92 97 123 0.7308864796340595 13 2302 14 1501 6 1162
545 0.02565172074253043 0.3221994462971893 0.3258082709705754 22 19 38 0.5975616282449531 2 1789 14 1497 19 1236 20 1410
544 0.2523406978832237 0.2322414934058166 0.5032879659034224 151 111 27 0.1461016378797823 13 2242 14 1492 7 1790
543 -0.19769309568335428 0.39430679740989216 0.2582388624399592 97 55 25 0.6525335235057289 13 2151 14 1489 15 2026 7 1407
542 0.08621009621337426 0.2755644549438776 0.2898256912560685 102 131 162 0.8064179595863237 13 2099 14 1488 6 1092 7 1655 20 1420 19 1643 5 1387 21 1063 22 858 9 539
257 0.34762016181130473 0.22450545181490095 0.50667120447672 185 176 126 0.8053208774445152 13 2235 2 2261 14 1506 6 1348 19 1742 20 1850 18 1533
256 0.2684703269090907 0.2169711075801681 0.520709498258722 192 148 24 1.0251406633040194 13 2234 2 2239 14 1589 6 1339 7 1781 15 2059 17 1925 19 1945 20 1836 16 1726 3 2117 8 2012
255 0.2847906582315029 0.2167126847717017 0.520455088521356 188 179 131 0.7470230566581215 13 2233 2 2244 14 1594 6 1345 7 1890 15 2182 17 1924 19 2117 20 1979
254 0.13686645112306547 0.21118153645136367 0.4348405549076759 123 135 150 0.8403770514965409 13 2232 2 2226 6 1307
253 -0.14001072255927705 0.18616743811957945 0.42411012626075506 22 139 199 0.2143307234730642 13 2231 2 1871
252 0.2960514212500666 0.2091195551036509 0.5295266683013229 197 153 25 1.1148461203972095 13 2230 2 2241 14 1591 6 1438 7 1886 15 2176 17 1916 19 2113 20 1984
251 0.09625724008580676 0.19994341064689836 0.4400303370893407 113 123 139 0.9359872110934094 13 2229 2 2100 14 1553 6 1403 7 1753 15 2180 17 1937
250 0.3218520897311697 0.16328636175957836 0.5784520522420489 205 164 39 0.8025593466522387 13 2218 2 2121 14 1578 6 1346 7 1759 15 2160 19 1925 20 1834
249 0.28728769423575445 0.1523359706114248 0.591785284917785 198 187 134 0.6918518468535456 13 2212 2 2227 14 1569 6 1428 7 1877 19 2093 20 1956
248 0.2730779206236642 0.13377909338171456 0.6117553336951499 199 187 138 0.7911292556384827 13 2207 2 2104 14 1469 6 1331 7 1741 19 2081 20 1821
247 0.10635496544522655 0.08457121930651056 0.6806469393052429 214 168 55 1.0643390424690637 13 2202 2 2059 6 1295 7 1707 20 1747
246 0.12048577919127544 0.07217704956860109 0.6933329550683859 214 168 54 0.9672572311305215 13 2198 2 2056 14 1430 6 1299 7 1702 20 1899 1 1916
245 0.021615198311092126 0.4007208596668467 0.3219614304539706 165 173 188 0.7271050965104129 13 2143 2 1803 14 1418 6 1083 7 1539 17 1683 19 1513 5 1129
244 -0.19277505915306348 0.3320574477216182 0.30246186586224844 43 32 31 0.8855648433617389 13 2132 2 1742 14 1460 7 1650 15 2130 17 2039 19 1837 20 1484 1 1252 5 1293 16 1348 21 1402 22 1678 9 1898 8 1746 4 1685 3 1644
243 -0.15112801539331006 0.3369691707012474 0.32383121397929987 179 142 168 1.2301790485237873 13 2131 2 1753 14 1475 6 1126
242 -0.19843648929456242 0.3193606349753029 0.30260532326915857 155 86 68 1.074415037849 13 2129 2 1731 7 1642 20 1329 1 1082 19 1833 16 952
241 -0.19947355294253852 0.3198228627871272 0.30545721539376447 155 86 68 0.7969714623175201 13 2128 2 1732 7 1643 15 2236
240 -0.20261587738766745 0.3143286933370433 0.30251491271753833 187 161 173 0.9162074586476182 13 2125 2 1723 15 2234
239 -0.271392683407104 0.304317822311845 0.36735187454542045 48 47 59 0.5539555515168043 13 2121 2 1698 14 1432 15 2123 19 1674 20 1156
238 0.1504409957156388 0.310763750429731 0.29141513652786605 106 105 77 0.47844661512388853 13 2116 2 1799 14 1512 7 1533 20 1138
237 0.1505565362633875 0.31080401557755893 0.2915779282985621 106 105 77 0.42602100322807573 13 2115 2 1798 14 1513 7 1532
236 -0.17401221291905114 0.28631327126117884 0.31905208050366585 191 122 167 0.8610471180582234 13 2112 2 1713 14 1436 7 1630
235 0.13792105185716086 0.2973693679012709 0.28392458248308994 142 155 147 1.0569640418370823 13 2107 2 1994 14 1508 1 1363 5 1401
234 -0.14456852622304595 0.28023345877424893 0.31811818725106444 180 145 161 0.5375951225523184 13 2104 2 1716 14 1439 7 1479 15 2108 17 1661 19 1478 20 1339 16 972 18 1473
233 0.07046473987300518 0.2736499595221688 0.2941436141118975 187 199 191 0.8241570334757178 13 2097 2 1779 14 1482 6 1200 17 1972 15 2085
232 -0.12460440618057236 0.2447406961746269 0.33905694316715007 202 166 198 1.05021383015757 13 2090 2 1699 6 1127 21 1147 22 1356 9 1558 23 1508 3 1652 12 1650
231 0.2557363408730193 0.268657160698062 0.46799810736049613 184 140 27 0.8483620116274246 13 2089 2 2144 14 1507 7 1808 19 1753 15 2075
230 -0.21303908738406924 0.22794414818953584 0.3946134183081258 150 157 179 0.5721522905709914 13 2088 2 1677 7 1593 15 1954 17 1653 19 1769 18 1942
229 -0.026935370278790935 0.2231164290607853 0.42601319918833186 169 184 199 0.6474434607714571 13 2081 2 1717 14 1443 6 1164 7 1611 15 2073 17 1799 20 1514 1 1312 5 1482 18 1723
228 -0.1663158656343832 0.17089824862755926 0.4350296064218385 103 175 218 0.17959377315647662 13 2073 2 1866
227 0.12641673930378228 0.1898379050783062 0.4273931335388128 143 154 179 1.094017483508605 13 2071 2 1932 14 1554 7 1616 15 2166 17 1922 19 1743 18 1689
226 0.13596602420142853 0.16790642390285815 0.43295280601307856 175 187 203 0.38164421041619034 13 2065 2 1919 19 1940
225 -0.09178627987415756 0.12495835226862424 0.5132845564484934 3 77 62 0.060351199327290654 13 2060 2 1867
224 -0.22059848305054605 0.045070572369170926 0.7528838773926423 226 178 72 1.0797501120175554 13 2046 2 1852 15 2048 17 2077
223 0.09418357053762376 0.07840847226958385 0.6896706860918465 210 170 76 1.0193248162686532 13 2045 2 1876 6 1190 7 1561
222 0.09441072267278794 0.07874995948647497 0.6890326512433468 210 170 76 0.9485141000044282 13 2044 2 1877 6 1191 7 1562 20 1737 1 1773
221 0.2236687717465868 0.09000587444548402 0.6699078601180751 207 160 52 0.6063250395998085 13 2042 2 1898 6 1314 7 1723 19 1885
220 0.2846145726562345 0.0968275265917295 0.6557955595394477 203 189 136 0.9883189126692138 13 2041 2 2093 14 1453 6 1329 7 1730
219 0.10774528370838773 0.07395890350049848 0.690576392942244 204 194 152 0.8429738207428201 13 2040 2 1878 14 1320 7 1563 20 1741 1 1778
218 0.20870789034488724 0.08364390377799079 0.6714363338386629 200 186 138 0.7684236866754313 13 2038 2 1895 6 1205 7 1715 6 1311
217 0.3219978856454934 0.08547417052018029 0.6626917967612945 192 148 33 1.099637049872772 13 2036 2 2094 14 1457 6 1338 7 1729
216 0.34504210759269366 0.08195800152363451 0.6645238755951528 189 141 30 0.8593080332244625 13 2034 2 2099 14 1462 6 1343 7 1731
215 -0.25869454237217754 0.396233044091198 0.2723817767058534 167 118 66 0.8049308567673934 13 1994 14 1124
214 -0.19491419420306766 0.38935106489010196 0.2643044891486777 143 90 38 0.8247631109841975 13 1992 2 1340 14 1270 15 2024 7 1404
213 -0.203452831337451 0.3809932347723119 0.26131537119818715 158 104 55 0.8645389823865276 13 1989 2 1545 14 1391 7 1527 15 2145 17 1716 19 1697
